# .PCD v0.7 - Point Cloud Data file format
VERSION 0.7
FIELDS x y z label
SIZE 4 4 4 4
TYPE F F F U
COUNT 1 1 1 1
WIDTH 1505
HEIGHT 1
VIEWPOINT 0 0 0 1 0 0 0
POINTS 1505
DATA ascii
-16.876474 -9.1563 3.456175 1.0
-16.698925 -14.518075 9.0522 1.0
-9.35725 5.55595 16.037201 3.0
-11.106215 -3.841345 -2.051314 1.0
-10.519383 -7.684233 2.379417 1.0
-10.8749 6.284 -10.74365 2.0
-1.090883 16.081482 25.276201 2.0
-12.085031 -6.05662 0.12875 1.0
-21.497183 -12.916466 11.296315 1.0
-12.88945 3.1424 -18.35845 1.0
-10.33095 6.7205 -6.94045 2.0
-13.859616 1.523533 -11.89615 1.0
-12.266418 10.433766 3.890183 2.0
-10.93705 9.048101 6.01755 2.0
-14.136425 3.668825 -39.733025 0.0
-10.921451 5.6864 -9.557484 2.0
-1.6859 12.09665 21.283051 2.0
-9.17675 5.5213 13.97635 3.0
5.58605 14.7329 32.847549 2.0
-13.946651 2.517834 -13.102849 1.0
-12.22415 5.8265 -31.359949 0.0
-12.438384 7.4435 8.92155 3.0
-17.877617 -1.669883 -2.63535 1.0
-11.851171 9.08346 22.467228 3.0
-10.08396 -2.67973 -2.90901 1.0
-17.317551 -3.483154 -1.107281 1.0
-2.66773 6.3618 25.662251 2.0
-9.13335 0.0914 -9.20825 1.0
-4.83 10.57575 14.86075 2.0
1.453398 8.946917 30.502958 2.0
-13.322075 5.378825 -30.480976 0.0
-11.8955 7.9141 -0.23445 2.0
-9.40675 4.29 -17.18635 1.0
-11.64745 3.4432 -16.17345 1.0
-1.650967 8.259683 25.885933 2.0
-0.891508 9.289142 25.69803 2.0
-10.891251 5.305275 12.720526 3.0
-15.717836 -15.8934 10.527708 1.0
-12.16055 3.9876 -28.395849 0.0
-12.0494 4.2533 -29.9091 0.0
-13.19465 9.1688 30.853951 3.0
-18.733034 -2.965583 -0.935833 1.0
-10.644065 5.221128 0.320564 2.0
2.469825 15.520275 28.364077 2.0
-13.6328 5.873917 -11.079717 2.0
-19.524851 -1.92225 -1.374392 1.0
1.757425 13.502789 27.109938 2.0
-2.854114 7.278227 24.682367 2.0
-8.49267 13.94382 15.29423 2.0
-12.148967 8.291425 12.121467 3.0
-9.243833 9.5391 3.47745 2.0
-12.11065 0.343937 -8.5322 1.0
-21.302601 -12.338501 10.095426 1.0
-11.3231 11.7422 7.52395 2.0
-11.903127 11.260433 6.293961 2.0
-12.39905 3.1497 -37.34565 0.0
-18.4967 -7.47645 2.8836 1.0
-12.575778 9.369873 28.885248 3.0
-2.310593 9.1123 22.687134 2.0
10.43185 15.9252 38.6147 2.0
10.61515 14.9422 39.680851 2.0
-11.293182 4.487005 4.87575 2.0
0.05265 11.0187 25.19545 2.0
-12.60745 7.371 -1.78215 2.0
-10.128484 0.871267 -10.519383 1.0
-10.350625 5.1728 16.294075 3.0
-16.9046 -13.150683 7.679284 1.0
-16.1131 -2.731617 -2.533783 1.0
-9.309114 6.697127 1.464059 2.0
-8.860456 6.88586 4.671851 2.0
-11.89445 -0.156767 -7.528616 1.0
-12.12483 8.329599 20.091709 3.0
-11.277349 5.7191 24.1124 3.0
-9.721338 5.89125 2.103738 2.0
-8.100349 9.90908 7.66449 2.0
-2.52667 10.298181 20.533291 2.0
-18.084471 -17.516811 12.693915 1.0
-12.103383 -1.026367 -6.286117 1.0
-14.138451 -3.415775 -2.896425 1.0
-3.85305 16.535101 23.225616 2.0
-12.87845 5.4701 -32.2556 0.0
-4.20755 9.8966 17.022449 2.0
-9.34022 5.959015 5.520637 2.0
-13.64875 5.3541 -4.93095 2.0
-10.709783 4.530833 6.494984 2.0
-11.956817 5.0888 -36.287449 0.0
-9.5455 5.9464 3.2912 2.0
-14.057271 5.06712 -38.311634 0.0
-16.718325 -15.522625 10.0371 1.0
-8.21685 14.3974 16.404249 2.0
-11.380783 9.366666 12.279217 3.0
9.41005 17.158899 37.564152 2.0
-13.61305 7.2681 -4.13405 2.0
3.65455 14.522175 30.114725 2.0
-11.428724 5.4774 -15.090549 2.0
-5.79065 10.7009 12.985701 2.0
-11.9786 5.816 22.5137 3.0
-12.880899 3.340125 -21.280602 0.0
-10.106649 -0.0979 -7.8176 1.0
-8.076381 8.689093 5.092888 2.0
-1.070533 11.122416 23.145683 2.0
-8.9753 7.68825 -0.48135 2.0
-1.45825 17.754101 26.68955 2.0
-8.337251 7.704847 5.844904 2.0
-12.972549 7.1897 -10.27565 2.0
-12.09205 4.896866 -27.647017 0.0
-11.0683 0.7539 -9.822349 1.0
6.35105 16.739676 34.063828 2.0
-20.700951 -16.44725 12.90675 1.0
-20.277401 -4.08625 1.12045 1.0
8.458064 14.119208 36.91581 2.0
-20.041952 -18.277567 13.072617 1.0
2.12195 12.29644 28.50095 2.0
-12.894135 -9.305178 3.676221 1.0
-3.10455 10.8558 18.15465 2.0
7.13985 13.458267 35.648884 2.0
4.6426 15.881701 31.36895 2.0
9.357064 15.095357 37.849022 2.0
-16.252115 1.977633 -7.494517 1.0
-13.72875 8.1554 34.685898 3.0
-12.261351 5.067 -41.03125 0.0
-8.67705 0.6137 -11.98235 1.0
-2.293083 11.653832 20.11355 2.0
-20.356449 -12.2387 8.37155 1.0
-12.41175 6.7282 -15.14955 2.0
-13.96755 3.6143 -19.80455 0.0
-8.11201 5.08484 14.30195 2.0
-20.509483 -12.6841 9.512384 1.0
-12.63735 9.87155 2.36605 2.0
-12.12445 -3.282485 -2.826121 1.0
0.522723 10.290154 27.280241 2.0
-11.865925 4.299412 -20.499336 0.0
9.963017 18.127333 38.870785 2.0
-8.839434 7.658934 2.291434 2.0
-9.9299 -1.499125 -4.489425 1.0
-8.68983 -0.61538 -6.67323 1.0
4.86435 14.8228 31.412849 2.0
-3.259761 14.921855 21.906929 2.0
-6.92835 12.0258 12.87705 2.0
-16.078049 2.541 -9.4944 1.0
-10.286425 6.10725 -4.87335 2.0
-13.34805 -13.2742 7.53175 1.0
-8.481566 8.734633 3.68625 2.0
-7.70975 11.100333 9.500217 2.0
-12.439334 2.033984 -12.899616 1.0
11.03275 19.246599 40.382351 2.0
-9.761701 6.68595 -2.2897 2.0
-11.932899 5.5279 1.51245 2.0
7.371916 17.7106 35.824516 2.0
-12.281972 7.889395 13.903271 3.0
-19.58165 -15.5735 11.47055 1.0
-15.496924 3.7327 -12.666775 1.0
-15.29155 -11.086067 5.075384 1.0
-6.286964 9.277 11.678793 2.0
-9.90005 12.839767 10.883316 2.0
-11.218117 5.700501 -13.24345 2.0
-10.11885 13.17242 12.09757 2.0
-20.58885 -15.3826 12.20195 1.0
-14.21955 3.0058 -33.465549 0.0
1.070193 11.5009 26.859348 2.0
-3.0424 8.8776 21.295 2.0
-16.887711 2.91356 -8.51001 1.0
-12.843483 9.0279 -1.05665 2.0
-14.728377 -1.351427 -5.127077 1.0
7.680622 15.087071 35.508831 2.0
-14.499431 -8.700459 2.68971 1.0
-10.21165 4.2099 10.65215 2.0
-7.12595 10.708 11.10355 2.0
-13.712184 -15.9017 11.276616 1.0
-9.33065 5.3105 7.50641 2.0
-13.73925 0.833267 -11.120983 1.0
-8.915871 -6.3481 1.42685 1.0
-13.860034 8.913584 32.873531 3.0
-16.25815 -1.525 -3.80125 1.0
-11.246325 10.057275 17.441774 3.0
-11.7712 9.1647 15.25515 3.0
-12.894726 4.513975 -11.889575 2.0
-14.909349 -9.57355 3.6245 1.0
-13.24065 -6.3909 0.44045 1.0
-13.36655 -11.8231 6.09695 1.0
-6.298925 13.719749 16.883774 2.0
-13.68775 5.5177 -21.295549 0.0
-12.82475 3.0541 -34.03775 0.0
-11.95855 5.8674 16.975801 3.0
7.70105 12.313336 38.092834 2.0
-16.291033 0.685533 -5.85815 1.0
-13.415449 7.6786 29.676201 3.0
-10.693374 -6.146 0.642309 1.0
-4.96925 12.8472 17.26445 2.0
-15.66725 -16.6213 11.38065 1.0
8.297709 18.288361 37.183929 2.0
-10.9085 5.0583 -2.0882 2.0
-3.25874 13.52083 20.482302 2.0
-12.890844 -2.090028 -4.53703 1.0
-3.262716 10.072433 19.481518 2.0
-5.68605 12.4318 15.45735 2.0
-10.910049 4.2608 -17.7078 1.0
-12.176199 8.317726 17.679399 3.0
-14.28393 4.07894 -16.48313 1.0
-11.74025 4.5863 -5.48215 2.0
-14.064416 5.272233 -33.737549 0.0
-0.075523 14.306954 25.018732 2.0
-13.39275 6.7713 -9.14345 2.0
-17.508787 -16.575525 11.417038 1.0
-7.18545 9.104167 8.577183 2.0
-11.134996 10.284519 15.317495 3.0
-12.04655 4.4188 -32.82045 0.0
-10.883451 -8.939 3.865383 1.0
-15.320783 0.652767 -6.967184 1.0
-8.97675 0.4067 -10.16565 1.0
-5.731706 5.698112 19.900972 2.0
-4.77875 11.70825 15.583799 2.0
-10.306983 12.0196 7.555216 2.0
-1.302125 7.682366 27.086676 2.0
7.70345 19.9904 37.794849 2.0
-11.628349 4.35315 -42.703949 0.0
6.436 18.054501 34.927597 2.0
-10.505449 5.262 13.8976 3.0
-10.99955 8.5166 -4.28585 2.0
-9.900137 -10.301226 5.5293 1.0
-10.07015 7.68005 -5.318125 2.0
-12.693151 6.645466 2.327917 3.0
11.39965 18.1989 40.22905 2.0
3.584321 11.250872 31.667835 2.0
5.260925 18.4718 33.966774 2.0
-9.706243 10.33613 4.254781 2.0
-20.959749 -13.9346 11.42015 1.0
-10.941449 5.3246 -8.218275 2.0
-7.96245 9.43615 6.65755 2.0
-11.2309 12.4924 10.47055 2.0
-11.715416 9.8091 0.04405 2.0
-18.50625 -14.7368 10.04555 1.0
-12.99685 5.0249 -42.46595 0.0
-9.81045 8.1721 -2.35405 2.0
-8.81215 10.9615 7.35045 2.0
-9.13157 4.85234 11.26841 2.0
-21.670717 -9.098434 6.481516 1.0
-12.338806 7.501278 12.684162 3.0
-14.7447 -16.257734 11.85125 1.0
-18.687813 -4.495637 0.443713 1.0
-14.79025 4.73 -14.74285 1.0
-12.335926 8.517037 24.666849 3.0
-14.091316 3.0751 -38.466915 0.0
-12.712075 6.89105 23.505899 3.0
-12.483784 -7.673067 1.674683 1.0
-14.089979 4.888081 -39.303707 0.0
-20.816351 -11.4501 7.99895 1.0
-14.00685 -0.4117 -8.35735 1.0
-13.13185 -4.2145 -1.831617 1.0
-18.905636 -0.086521 -3.284136 1.0
-9.93695 5.226 11.89475 3.0
-11.3544 9.74545 24.376125 3.0
-13.39055 7.7753 -2.62185 2.0
-15.63235 -5.9971 -0.36345 1.0
-3.105363 7.726825 23.069963 2.0
0.282883 18.417 29.119949 2.0
-1.323522 9.492271 24.323908 2.0
-14.19235 4.2628 -36.287651 0.0
-11.520278 5.5114 14.865807 3.0
7.064635 19.298885 36.358994 2.0
-10.08595 9.3379 0.43315 2.0
4.16865 11.6181 32.420551 2.0
-14.825017 2.531934 -11.133583 1.0
-20.717548 -10.4685 6.77235 1.0
-12.474995 7.099681 21.508345 3.0
-14.23145 3.9047 -29.0567 0.0
-14.56015 -0.132433 -6.886417 1.0
-11.79245 3.55765 -17.132149 1.0
6.339625 14.699175 33.883102 2.0
11.469657 15.891075 40.51841 2.0
-5.47245 11.118075 13.91305 2.0
-14.065307 3.092014 -35.098217 0.0
-13.05605 5.8676 -28.295151 0.0
-10.55535 5.362 -4.16945 2.0
-10.926884 9.738489 11.502494 3.0
-9.1007 10.265475 5.503674 2.0
13.13615 17.434601 42.276451 2.0
-13.687307 -13.919486 8.502321 1.0
3.64095 15.5669 29.7882 2.0
-20.11825 -3.17 0.21415 1.0
-11.288549 -4.877178 -1.076895 1.0
-10.1845 10.87615 12.882549 2.0
-11.78755 -12.8264 8.15585 1.0
-9.082069 6.69206 3.7036 2.0
-1.93315 16.467699 24.943583 2.0
-5.697417 15.698783 20.481583 2.0
-11.9247 1.15865 -10.4563 1.0
-14.01805 3.0943 -41.93615 0.0
-13.226 8.283899 28.901451 3.0
-0.259617 9.08972 27.262518 2.0
-22.065201 -6.529221 4.705093 1.0
-13.09955 3.43055 -19.264299 1.0
-14.3759 4.08565 -32.3568 0.0
-11.645249 4.079733 -40.530682 0.0
-9.504784 -7.862978 2.9278 1.0
-13.2686 6.32095 -13.155575 2.0
-11.31845 -8.3748 3.04355 1.0
4.22405 13.1017 31.1959 2.0
-2.1628 7.9528 24.74115 2.0
6.23905 19.439201 35.549351 2.0
-14.8442 1.1174 -8.4338 1.0
-13.9701 5.07515 -25.37825 0.0
-12.72885 4.8626 -6.74355 2.0
-13.56145 2.1583 -14.98995 1.0
-11.100373 9.290647 -1.482762 2.0
-8.475017 5.899611 8.503206 2.0
-12.03505 6.17205 13.52845 3.0
-4.5743 9.74395 16.1546 2.0
-13.1416 9.865751 32.288151 3.0
2.312683 8.883468 33.27235 2.0
-10.22725 -11.7754 7.65875 1.0
-9.981501 10.68375 11.87575 2.0
-12.37755 5.4177 -1.90935 2.0
-14.0309 3.7369 -23.975651 0.0
-12.33455 -11.87915 6.45425 1.0
-6.763725 6.1256 15.5369 2.0
-5.54075 7.092619 17.137444 2.0
-13.02035 -3.0976 -3.40635 1.0
-13.66075 7.7388 -0.74265 2.0
-13.7188 -1.0381 -6.611025 1.0
7.71595 18.5114 36.313351 2.0
-12.298884 5.915216 3.512417 3.0
-9.903784 -6.657099 1.5346 1.0
-12.4153 6.702 17.1502 3.0
-10.596149 7.26665 -8.836451 2.0
-9.494126 -3.86493 -1.338017 1.0
-5.348283 9.0798 14.498982 2.0
-13.62105 2.5347 -30.771049 0.0
-13.44795 2.5737 -16.57255 1.0
-12.506525 4.512925 -8.6875 2.0
-6.5438 7.3606 11.591 2.0
-11.20835 9.8013 23.17695 3.0
-12.91575 5.9349 -26.523951 0.0
2.98225 18.9443 32.414951 2.0
-17.675417 -4.45505 -0.018917 1.0
-8.687717 5.444933 9.31045 2.0
-11.123526 4.93235 -6.873375 2.0
-13.8878 -5.1846 -0.71155 1.0
2.77145 16.778099 29.81665 2.0
8.680949 13.324548 38.108513 2.0
-13.42005 5.3952 -10.17865 2.0
-10.3694 4.9018 19.3116 3.0
-9.98275 6.9746 -4.65705 2.0
4.568181 13.077925 32.062927 2.0
-21.459351 -7.71885 5.16885 1.0
-11.728109 5.661429 18.697479 3.0
-17.455282 0.502733 -4.824884 1.0
-14.10173 -12.9049 7.12795 1.0
-6.04995 11.9795 14.35705 2.0
-11.84445 8.3097 -5.80685 2.0
-11.883521 10.371643 1.882607 2.0
-12.522075 -13.889276 9.138825 1.0
-12.17925 4.3967 5.14415 2.0
-13.6123 5.76315 -9.32485 2.0
-7.50435 5.2987 15.57185 2.0
-12.881399 0.23545 -9.3197 1.0
11.74685 18.324301 41.552448 2.0
-12.495131 7.29576 15.499949 3.0
-4.909613 8.706737 15.909411 2.0
-11.94519 8.92904 16.971071 3.0
13.02945 17.128099 41.13295 2.0
-10.91975 4.931 20.470551 3.0
-15.51225 -8.330266 2.078317 1.0
-12.08895 4.500286 -16.695265 2.0
-4.28555 6.323628 22.668993 2.0
-7.85605 5.8058 12.23855 2.0
-7.9091 15.18895 18.2957 2.0
-10.129512 10.108431 9.881927 2.0
-13.118584 6.271333 -14.633717 2.0
-20.641451 -6.8248 3.75245 1.0
-1.3548 12.88225 22.376701 2.0
1.75445 10.494661 29.236872 2.0
-14.84245 -2.660833 -3.629817 1.0
-5.75875 7.3699 15.49325 2.0
2.217 16.441299 28.916302 2.0
-12.67825 6.90014 24.540371 3.0
-14.113976 -6.074012 0.11815 1.0
4.46215 17.512133 32.318249 2.0
-15.124333 -7.086483 1.08565 1.0
-13.48855 5.1831 -3.6339 2.0
6.556239 13.861611 34.469429 2.0
-10.08105 10.4389 19.123751 3.0
-3.1818 6.97845 23.87665 2.0
-7.88965 8.427 7.17565 2.0
-20.491779 -9.0894 5.516064 1.0
1.708388 8.884546 31.493282 2.0
-11.112101 10.521749 3.30525 2.0
-12.701537 6.305888 -0.26735 2.0
11.693816 16.897289 40.308437 2.0
-16.036051 4.909733 -13.254284 1.0
-16.484037 3.755287 -11.885 1.0
-13.171616 9.153733 2.167117 2.0
7.91785 13.29195 36.562473 2.0
8.220683 16.104467 36.318985 2.0
-11.50415 -9.621651 4.24015 1.0
-13.99625 5.0327 -24.183649 0.0
-11.29495 5.2347 6.63505 3.0
-6.8821 8.2882 10.486287 2.0
-11.60615 8.207 1.76015 2.0
-4.98345 6.38755 20.362701 2.0
-10.62745 1.5559 -11.77305 1.0
-3.677716 8.508283 20.0618 2.0
-3.6926 12.69575 18.9161 2.0
-10.18925 7.6523 -6.25675 2.0
-10.78645 9.9722 19.77445 3.0
-12.29655 5.68125 -29.372551 0.0
-11.313576 2.083965 -12.884425 1.0
-12.51295 7.1756 14.45445 3.0
-14.085822 -9.946443 4.085093 1.0
-9.7747 7.133025 -3.722825 2.0
-9.452233 13.928132 15.255199 2.0
-15.74175 -17.269234 12.368251 1.0
-12.870366 8.109366 -5.721308 2.0
-17.308437 -1.307025 -3.278212 1.0
0.935238 13.494849 26.301325 2.0
-12.969999 7.7842 -7.15865 2.0
1.71461 11.707 27.94521 2.0
2.096863 13.292601 27.923761 2.0
-11.79305 5.4254 -22.92115 0.0
-12.49975 6.5152 9.42665 3.0
-12.459817 4.314033 3.322417 2.0
-13.703418 5.446167 -35.311115 0.0
-11.02905 8.976 -2.59615 2.0
12.92475 18.134701 41.014801 2.0
-13.453522 8.313356 30.710693 3.0
-11.908501 2.7103 -14.6575 1.0
-11.690705 -2.095761 -4.291332 1.0
-16.076372 -0.889178 -4.448683 1.0
-12.636083 8.650399 -4.107983 2.0
-18.709099 -11.292574 6.30795 1.0
3.114766 18.099932 31.465334 2.0
-10.87475 5.486 22.433449 3.0
-9.64303 6.28474 0.09501 2.0
-17.495949 -17.8472 13.2928 1.0
-15.103493 -13.897484 8.096126 1.0
-12.649617 -12.773099 7.81145 1.0
-11.88565 6.9654 -11.55385 2.0
-8.99735 8.6004 1.79535 2.0
-8.35005 12.061 10.455 2.0
-12.686487 7.695237 25.047739 3.0
-16.456902 -14.01165 8.326901 1.0
4.453083 10.9269 33.782318 2.0
-10.32605 5.4621 -1.43435 2.0
0.0251 10.340651 25.835751 2.0
-12.75027 10.1399 5.31815 2.0
-9.95897 8.642 -0.93089 2.0
-19.070251 -3.466714 -0.2733 1.0
-12.32075 7.8267 2.94755 2.0
3.22985 9.9772 32.976349 2.0
-13.55875 2.4542 -40.130852 0.0
-7.454834 6.6829 10.284783 2.0
-1.976983 11.463866 21.938683 2.0
-13.532425 8.14985 0.48375 2.0
-10.4332 5.45115 -3.0815 2.0
-15.897249 -12.73305 7.0107 1.0
-7.45505 -1.0603 -5.95415 1.0
-12.23233 4.26 -34.446827 0.0
4.31445 16.6154 30.931351 2.0
-10.100051 5.134817 17.906965 3.0
1.44715 17.0205 28.585318 2.0
-9.9189 4.706167 8.750184 2.0
-12.124209 4.68069 1.71699 2.0
-9.93355 4.917043 6.920821 2.0
-14.7071 1.923725 -10.134375 1.0
9.7739 14.235701 39.252998 2.0
-7.07988 15.76279 19.872139 2.0
-10.042 5.451412 3.884487 2.0
-14.054817 -3.953883 -2.186417 1.0
-3.75145 17.3934 24.407749 2.0
-7.462633 5.88365 13.861015 2.0
-13.324389 5.31444 -8.30029 2.0
5.44735 13.8098 32.758751 2.0
-12.503293 4.6865 0.436893 2.0
6.911962 11.900595 36.890404 2.0
0.080367 8.327167 28.760534 2.0
7.753467 16.897051 35.849098 2.0
-13.290951 2.3067 -42.712299 0.0
-10.15365 10.2647 22.251551 3.0
-12.50655 2.5652 -41.56525 0.0
-11.35745 0.6722 -8.98765 1.0
-12.270383 8.4707 23.698648 3.0
-18.713423 -16.123272 11.330211 1.0
-6.39435 11.4109 12.52935 2.0
-17.105749 -5.462059 0.492375 1.0
-11.7228 -7.250133 1.516067 1.0
-10.922375 10.509262 14.480901 3.0
-13.65205 6.9823 -4.97665 2.0
-1.7628 7.34745 26.310308 2.0
-10.288799 11.319799 5.92845 2.0
0.686741 9.289727 28.728313 2.0
-11.7239 5.2774 3.1147 2.0
-14.053683 3.108733 -36.688183 0.0
-12.24185 5.929 -24.534149 0.0
-10.664125 4.67025 5.46785 2.0
-12.356825 9.099224 -3.06185 2.0
1.319383 16.107033 27.284182 2.0
-10.87737 -0.2861 -7.418509 1.0
-8.477699 0.2458 -10.9667 1.0
-13.83575 2.5392 -37.679649 0.0
2.495032 10.293686 30.685575 2.0
-8.00235 13.2176 13.51005 2.0
-11.085299 2.688738 -14.257412 1.0
-10.97507 6.484641 -12.32781 2.0
-17.15275 -6.776 1.62715 1.0
-20.036301 -13.53785 9.90645 1.0
-18.706375 -6.741675 2.4479 1.0
-12.58675 6.5667 20.81765 3.0
-0.86145 15.1309 24.61285 2.0
-15.4672 -3.670867 -2.045467 1.0
-2.45961 13.509379 21.110249 2.0
-12.09245 5.473528 -26.33185 0.0
-10.695617 10.902767 4.901383 2.0
-15.092883 -14.8289 9.156151 1.0
-13.62165 5.5209 -13.09545 2.0
-4.8869 15.312051 20.67865 2.0
-13.036731 7.89214 27.516272 3.0
-19.22245 -16.8179 12.15365 1.0
-5.68807 13.12386 16.686371 2.0
-17.718775 -14.284125 9.1276 1.0
-8.5442 6.5479 6.7487 2.0
-14.36565 3.9273 -42.849751 0.0
-7.057175 5.290425 17.108074 2.0
-10.259236 -3.753414 -1.754021 1.0
-12.208401 5.7144 -28.14245 0.0
-11.488141 -6.508791 0.684742 1.0
-14.04505 3.50315 -25.069149 0.0
-11.951651 8.340361 7.520289 3.0
8.68795 17.499001 37.207901 2.0
-14.0927 -12.1636 6.4442 1.0
-16.93375 -11.7989 6.21035 1.0
-11.086249 -2.630966 -3.621583 1.0
-13.0652 3.22475 -27.235649 0.0
5.475141 11.343863 35.11525 2.0
-4.3583 11.54565 16.33205 2.0
-11.539 4.9056 -11.736 2.0
-17.879683 -2.861589 -1.464839 1.0
-13.29575 3.083 -22.701651 0.0
-12.730033 9.917476 3.296503 2.0
-7.509293 14.464328 17.084335 2.0
-12.17145 8.9722 25.86635 3.0
-11.712207 5.6818 8.111337 3.0
-9.098149 -0.67354 -5.89299 1.0
-12.327636 3.912414 -23.494221 0.0
-11.69995 4.8517 -25.55105 0.0
-11.685718 5.551084 20.700317 3.0
-10.273849 0.1839 -8.6236 1.0
7.28279 19.887621 36.960789 2.0
-12.486407 3.661015 -20.521078 0.0
-15.706079 -5.136771 -0.547179 1.0
-12.106983 5.922333 6.275617 3.0
-11.510075 5.44655 17.884876 3.0
-18.12495 -5.729225 1.24895 1.0
-12.3012 5.18325 -39.296753 0.0
-13.635917 6.309366 -7.475017 2.0
4.2296 18.4739 32.9506 2.0
-12.28465 4.3867 -13.37645 2.0
0.867019 8.342538 30.298809 2.0
-11.526378 9.510657 18.729055 3.0
-12.69565 4.1733 -15.51895 2.0
-4.3031 14.066899 19.718466 2.0
-13.509951 5.65695 -23.4592 0.0
-4.6735 16.91725 23.071949 2.0
-14.65205 4.2323 -37.96825 0.0
-14.91555 -0.7315 -5.701475 1.0
-12.693916 0.6621 -10.088883 1.0
-8.64105 -0.4026 -7.51415 1.0
-6.893917 9.501233 9.680183 2.0
-13.32785 6.7852 28.75585 3.0
-5.17125 5.48845 21.695599 2.0
-0.63675 16.9289 26.60535 2.0
-15.089649 -13.162325 7.3274 1.0
-10.160769 -2.22248 -3.65421 1.0
-8.57625 -1.7997 -3.77235 1.0
-12.71745 4.6363 -10.13205 2.0
2.662383 14.089566 28.449615 2.0
-12.36895 4.31375 -32.028 0.0
-3.100875 16.11845 23.474251 2.0
-12.30145 1.506067 -11.396417 1.0
-18.098724 2.076825 -5.28365 1.0
-19.903784 -6.471367 2.970383 1.0
-13.38605 -0.738933 -7.844517 1.0
-10.30235 4.9042 -18.90065 1.0
-13.49225 2.9104 -17.670349 1.0
-4.67775 7.08902 19.67153 2.0
-10.82583 10.45294 13.268811 3.0
4.88385 10.8302 36.31485 2.0
-11.239049 10.02355 26.675817 3.0
-14.161217 4.108533 -26.720682 0.0
5.5028 17.300774 33.313251 2.0
-0.725683 13.6768 23.685118 2.0
-14.01925 4.6228 -41.120251 0.0
-10.275317 5.45325 1.4812 2.0
-10.31815 5.135 10.81215 3.0
-0.99955 18.8291 27.97385 2.0
-5.42545 14.1576 18.423149 2.0
-12.435917 7.450634 3.938817 3.0
-21.523701 -5.66005 3.31605 1.0
-7.415475 6.21165 12.9138 2.0
2.261925 17.668949 30.113525 2.0
-6.678017 12.323067 13.69075 2.0
-20.160549 -14.130449 10.8427 1.0
-12.083963 8.2965 8.902736 3.0
-8.113874 6.87345 7.667725 2.0
-11.74965 7.8853 -7.29995 2.0
-9.490022 4.730214 10.502722 2.0
-13.722128 1.689233 -12.722584 1.0
0.08405 12.8999 24.905323 2.0
1.718756 10.87805 28.475023 2.0
12.67155 16.177099 41.62125 2.0
-12.99245 5.866066 -5.265483 2.0
-8.984924 7.906525 0.494775 2.0
-11.58055 4.9468 -13.06155 2.0
-2.04895 13.9641 21.82025 2.0
-18.475368 0.88842 -4.25621 1.0
7.540284 12.460567 37.268677 2.0
0.83635 14.1901 25.773849 2.0
-11.808201 8.8104 10.50175 3.0
-6.527375 10.10325 11.111925 2.0
-8.264283 13.013799 11.908417 2.0
-14.017784 4.861134 -27.280752 0.0
-11.78235 4.7735 -14.77095 2.0
-15.041917 3.177467 -12.173817 1.0
-10.88865 -11.091701 6.294416 1.0
-12.72765 4.3876 2.23845 2.0
-12.33065 6.277425 25.889725 3.0
-5.8427 16.4587 21.8841 2.0
-11.148917 7.1124 -10.676684 2.0
5.67007 10.734221 36.734795 2.0
-15.75055 3.2569 -10.80485 1.0
-6.78575 4.9424 18.70945 2.0
-13.81485 5.3411 -22.410549 0.0
-0.913825 17.861225 27.336975 2.0
-10.1715 6.5784 -3.0225 2.0
-11.40475 3.8584 -38.728951 0.0
14.5682 18.451 43.049149 2.0
-2.90815 11.6384 18.98885 2.0
-13.27405 8.031 32.169048 3.0
0.32035 17.350601 27.906898 2.0
-6.89395 14.9557 18.515051 2.0
-11.68775 6.6192 -13.8934 2.0
-13.51635 -8.69385 2.8681 1.0
-6.44235 6.231634 16.31175 2.0
8.60245 18.8043 37.775749 2.0
-4.26595 13.33495 18.847576 2.0
2.712819 11.509301 29.902821 2.0
-3.75565 11.6851 17.586849 2.0
-13.84915 -0.0206 -9.30875 1.0
-9.8618 5.4581 5.091125 2.0
-12.22705 8.4141 21.9163 3.0
-17.514317 -17.123232 12.06565 1.0
-12.718349 3.31335 -33.212502 0.0
-20.130825 -5.5539 2.41985 1.0
-8.8681 12.741899 11.1001 2.0
-14.12035 3.480267 -15.092151 1.0
-12.79535 7.0101 -2.68285 2.0
-13.32765 6.725471 -10.888708 2.0
-13.542807 6.319686 -6.488993 2.0
-12.266225 4.906725 -31.43955 0.0
-12.6452 7.46135 22.30485 3.0
1.83365 19.1574 32.382202 2.0
-11.99885 4.1695 -22.39555 0.0
-11.04995 5.1225 15.62835 3.0
-2.89035 17.902714 25.538136 2.0
-13.96515 3.0287 -27.80365 0.0
-14.116279 3.9087 -35.273327 0.0
-9.502483 -8.500741 3.525708 1.0
-19.543949 -14.855067 10.869316 1.0
-8.673201 4.8738 13.2897 2.0
-2.26125 6.5648 26.421551 2.0
-9.69045 1.6815 -12.93005 1.0
5.176094 12.299445 33.623306 2.0
-0.292293 13.704987 24.483175 2.0
-12.856239 7.315156 26.15435 3.0
5.27415 19.8176 35.023849 2.0
-9.265101 7.49645 -2.07695 2.0
3.114625 13.686251 29.277023 2.0
-10.293149 -0.578467 -6.334683 1.0
-11.680084 5.287722 -18.298439 2.0
-12.61985 6.5905 12.02305 3.0
-13.07475 6.676033 -12.275083 2.0
-12.874414 6.508573 -3.488541 2.0
-12.46515 6.14 23.160749 3.0
5.054417 16.280668 32.171085 2.0
-21.04215 -2.68665 -0.0237 1.0
-13.4993 5.272 -37.728226 0.0
-17.51615 -12.341166 6.902783 1.0
4.23439 10.30838 34.351429 2.0
-19.932016 -8.336533 4.49945 1.0
-21.69775 -11.7523 9.57585 1.0
-10.510468 9.851537 1.536859 2.0
-6.034317 7.903141 13.104549 2.0
-12.507475 3.662 -30.267527 0.0
2.76005 19.318748 33.48745 2.0
-21.917517 -9.896399 7.91665 1.0
11.488813 19.713076 41.26239 2.0
8.306089 14.9093 36.09893 2.0
-12.03145 5.4383 -35.24675 0.0
4.704936 12.29631 32.501919 2.0
-2.20825 10.467 21.63485 2.0
-12.88549 9.287081 0.91295 2.0
9.81015 17.7423 38.15395 2.0
-9.91015 11.4957 6.95725 2.0
-13.894529 8.68618 33.697212 3.0
-12.67617 3.49542 -25.282169 0.0
-12.701179 -14.694214 10.281236 1.0
-14.233422 3.899655 -30.503935 0.0
-13.324277 4.975955 -40.471195 0.0
6.7549 20.69545 36.782448 2.0
-13.124001 2.9508 -28.967049 0.0
5.89925 15.733566 32.744854 2.0
-7.317966 7.8934 9.284517 2.0
5.99795 18.4991 34.336849 2.0
-12.293807 -3.825971 -2.228936 1.0
-2.64595 8.473187 23.086159 2.0
-10.39675 5.3193 20.976351 3.0
-13.55365 5.2599 -11.62435 2.0
-11.9691 8.141583 4.682833 2.0
-13.76615 2.91155 -26.1686 0.0
-11.54635 7.611 -8.10545 2.0
-13.36725 2.9802 -24.480749 0.0
10.0613 14.6612 40.349648 2.0
-11.01605 4.18665 8.1355 2.0
-15.33415 4.073825 -13.449076 1.0
-11.083657 10.052142 25.116213 3.0
-13.977717 4.695267 -20.90435 0.0
-9.510325 13.543674 13.5245 2.0
-13.882516 -15.345467 10.649934 1.0
-10.11175 1.07815 -11.34595 1.0
-21.511866 -9.668967 7.051033 1.0
-14.251551 3.912925 -37.06805 0.0
-4.881275 13.527375 18.324799 2.0
-17.1117 3.336583 -10.273749 1.0
-12.33945 6.2346 7.57555 3.0
-12.238041 4.092627 -26.297907 0.0
-12.80775 3.2197 -31.70385 0.0
-11.83865 3.0231 -43.146049 0.0
-12.227116 9.48765 -1.673317 2.0
-11.94865 3.7954 -36.97385 0.0
-12.315351 -9.6692 4.12763 1.0
-5.889316 7.49552 14.69451 2.0
-14.07485 4.4981 -34.136177 0.0
-13.42935 4.9064 -1.48575 2.0
-12.449249 4.5307 -5.07665 2.0
-12.7208 -0.17125 -7.7321 1.0
-12.6654 5.24855 -37.513802 0.0
-12.516419 2.91292 -38.689983 0.0
-19.325199 -17.93395 13.349751 1.0
9.64565 14.378 38.289749 2.0
-12.352349 -10.653466 5.26335 1.0
-5.35435 14.611 19.132851 2.0
-12.67375 6.49602 27.32843 3.0
-10.46031 6.70654 -7.96773 2.0
-3.920014 10.473694 16.520929 2.0
-11.42085 5.7078 -15.87405 2.0
-10.82161 9.2245 8.478929 2.0
-6.15595 14.2624 17.84655 2.0
-19.513287 -7.906093 3.858228 1.0
-11.879874 4.63545 -1.087575 2.0
-0.55805 10.73085 24.551233 2.0
-19.524612 -4.53888 1.05631 1.0
-1.962625 9.89275 22.32935 2.0
-8.33715 8.1088 2.93375 2.0
-3.351117 7.9743 21.669317 2.0
5.069383 11.536775 34.100811 2.0
-7.33235 -1.92755 -3.85165 1.0
-11.929116 3.3001 -39.113182 0.0
-5.71431 6.11962 18.863411 2.0
-12.15245 3.761972 -35.709908 0.0
0.65775 12.7048 25.53229 2.0
-4.49964 8.299234 17.91222 2.0
-12.351551 6.240625 24.8841 3.0
-15.323851 1.84075 -8.58285 1.0
-15.17765 2.268 -9.56915 1.0
8.869326 14.710936 37.288654 2.0
-10.99785 5.9913 -11.48985 2.0
-16.548651 -17.273899 12.83025 1.0
-6.482693 6.864185 14.128207 2.0
0.16525 16.573349 26.9086 2.0
-12.144926 7.928775 5.509 3.0
-12.327889 7.90254 16.097672 3.0
-13.377935 7.738971 -3.490364 2.0
-11.8442 4.27835 -18.7276 0.0
-16.814951 2.5139 -7.71755 1.0
-8.506333 4.519583 14.72435 2.0
-11.300301 8.6237 3.2792 2.0
-13.956082 3.9002 -22.080519 0.0
-11.548775 5.723375 -17.494801 2.0
-15.902201 0.04365 -5.526 1.0
-12.898017 5.389667 -31.278084 0.0
10.540851 17.6968 39.23457 2.0
-12.726121 6.484672 -1.306221 2.0
-9.883699 3.81865 -16.5478 1.0
-11.54455 9.719474 25.686823 3.0
-6.35695 7.1485 13.309016 2.0
-13.896183 2.562933 -36.117752 0.0
6.899925 12.701525 35.515423 2.0
10.1096 19.1152 39.454052 2.0
-9.684779 -4.52564 -0.70638 1.0
-11.71665 10.02545 0.8526 2.0
-12.43365 6.685267 18.481417 3.0
-22.013451 -7.5394 6.01835 1.0
-13.61745 3.1241 -21.04525 0.0
-13.897767 5.059767 -29.480101 0.0
-14.703566 -4.913192 -1.124865 1.0
-5.54253 8.32608 14.30385 2.0
-13.61895 4.983 -14.56495 2.0
7.496216 14.098233 35.322948 2.0
-2.98985 13.0011 19.93425 2.0
-19.071949 -9.6439 4.98965 1.0
-11.22775 4.8146 2.68845 2.0
-8.86085 2.7762 -14.62515 1.0
-17.627499 2.83145 -7.12005 1.0
-0.4361 12.29295 24.29105 2.0
-11.311121 8.873842 7.514393 2.0
3.60275 11.7387 30.89875 2.0
-11.32295 5.4558 10.98285 3.0
-5.63105 9.6007 13.26445 2.0
-8.10695 -4.4212 -0.608517 1.0
-12.67985 9.07125 -2.25485 2.0
0.17175 15.5637 26.0415 2.0
2.258983 9.324208 31.917736 2.0
9.085717 19.697433 38.65955 2.0
-12.67375 7.706225 23.296549 3.0
-9.519534 9.53375 2.683633 2.0
-11.16725 12.1955 9.03955 2.0
-12.8672 5.686583 -4.0744 2.0
-11.564775 5.634425 11.892025 3.0
-6.9431 13.488999 15.69845 2.0
-3.83925 10.277434 17.735817 2.0
-10.18805 -11.1152 7.05365 1.0
-11.1649 5.65865 -19.416199 0.0
-14.89855 -6.166425 0.218675 1.0
-17.275549 -0.13532 -4.344791 1.0
-9.75375 5.3647 15.2379 3.0
-13.888142 4.692332 -41.901676 0.0
-10.325336 -3.269143 -2.43275 1.0
-16.288465 -8.832243 2.918164 1.0
-13.308022 5.498685 -6.097579 2.0
-11.65995 -11.5846 6.85835 1.0
-14.10215 3.098 -29.444349 0.0
-12.310249 7.480017 1.3129 2.0
-11.39055 5.0198 0.03875 2.0
0.52375 11.890178 25.898972 2.0
-12.12065 5.2487 -38.264099 0.0
-10.426525 6.263925 -6.2984 2.0
8.97155 13.8914 39.600948 2.0
-12.49095 2.08305 -13.7019 1.0
-7.271441 6.6989 11.094901 2.0
-8.19715 -1.1985 -4.84215 1.0
-14.44205 -2.0436 -5.41105 1.0
9.052836 15.743499 37.328636 2.0
1.312725 12.891524 26.874363 2.0
-9.79965 7.897 -3.51665 2.0
-13.60155 2.1685 -14.09045 1.0
-7.94285 10.702199 8.85761 2.0
-7.22075 11.5161 11.16815 2.0
-16.285324 -4.267725 -1.030125 1.0
-13.98685 3.0602 -31.24205 0.0
-11.36935 4.9313 -9.86805 2.0
-12.067801 5.76275 4.88285 3.0
-21.750351 -4.628 2.34335 1.0
-9.89425 -9.70184 4.69415 1.0
-9.12865 -0.9921 -5.16615 1.0
-13.7027 2.5462 -41.117149 0.0
-10.129499 4.37205 -17.727451 1.0
-11.78595 4.5972 -2.93765 2.0
-1.93755 17.498451 25.978001 2.0
-12.9498 -1.8162 -5.27255 1.0
-19.219851 -13.0292 8.54045 1.0
9.975 15.483 38.150902 2.0
-19.48361 -11.24578 6.72057 1.0
-11.30795 5.430633 9.449317 3.0
-16.565849 3.4286 -9.02695 1.0
-9.9181 12.0459 8.27295 2.0
-14.2276 3.7067 -28.295799 0.0
-19.89039 -0.737593 -2.108593 1.0
4.14885 11.06551 33.071411 2.0
-9.890912 6.1082 -1.531575 2.0
-14.271916 -7.3787 1.42115 1.0
-1.813 13.535351 22.436199 2.0
-12.02975 4.308767 -29.110582 0.0
-20.968149 -3.735267 1.281483 1.0
-14.162518 3.9174 -40.684551 0.0
-11.30135 3.45685 -42.116402 0.0
-12.903749 5.4802 -33.864601 0.0
-9.480217 13.322967 12.76415 2.0
-22.358549 -10.5224 9.26355 1.0
-17.67045 -13.25855 7.8816 1.0
3.867836 19.528515 34.328106 2.0
-9.12445 -9.4156 4.17725 1.0
-12.5596 6.75925 11.0754 3.0
-2.335587 16.056587 24.119362 2.0
-11.517824 4.4981 4.124925 2.0
-8.57515 11.408 8.49825 2.0
-10.91408 10.310918 18.102077 3.0
-10.60035 12.9464 10.39365 2.0
-3.75125 14.8275 21.18355 2.0
-10.694283 -1.505933 -4.920383 1.0
9.77785 20.49095 39.7164 2.0
-4.54755 10.1432 15.44395 2.0
-11.852783 5.6986 23.352285 3.0
-3.303717 10.675667 18.885283 2.0
-11.89645 3.167333 -40.112484 0.0
-14.156316 3.089167 -13.675449 1.0
-12.501984 2.480084 -42.464645 0.0
-7.86795 14.0269 15.75015 2.0
5.95215 20.6306 36.10815 2.0
-2.0328 18.450401 26.655449 2.0
10.715736 16.719364 39.293663 2.0
-3.84935 12.386 17.990749 2.0
-11.34975 5.9841 24.860649 3.0
-14.51745 -11.0286 5.04815 1.0
-20.177549 -17.0926 12.82825 1.0
-10.3296 7.5007 -7.12525 2.0
-6.19085 5.4389 20.47035 2.0
-7.61135 8.5786 8.15215 2.0
-13.235034 7.655833 -6.431017 2.0
-12.18905 4.7192 -33.703651 0.0
-9.322516 4.96815 9.286983 2.0
1.697283 18.917 31.249418 2.0
-11.939125 6.054525 14.313576 3.0
10.58665 20.4498 40.464249 2.0
-20.081158 -2.088643 -0.862629 1.0
9.95625 16.696402 38.092083 2.0
-7.61785 12.47605 11.839849 2.0
-13.10571 2.73414 -34.682835 0.0
-10.364 -5.67935 0.04585 1.0
6.78035 15.491051 33.988899 2.0
6.2439 11.351225 36.262951 2.0
13.697309 19.454861 42.06797 2.0
-11.5093 11.227867 4.739016 2.0
0.68185 10.079599 28.05595 2.0
-19.3381 -13.7775 9.68435 1.0
1.86035 15.486349 27.893448 2.0
-8.8492 14.53525 16.8218 2.0
-7.789484 7.901067 7.75495 2.0
-10.522984 11.0541 14.905583 3.0
-14.1811 1.3252 -9.895701 1.0
-6.903797 6.331558 14.488988 2.0
-11.24691 4.81944 -6.12333 2.0
-10.98635 8.8864 5.09315 2.0
-0.235917 11.633334 24.718948 2.0
-19.023649 -0.7072 -2.84725 1.0
-13.509251 5.1499 -38.84095 0.0
4.95725 19.380301 34.45805 2.0
-11.931194 4.301266 -24.128094 0.0
-9.094999 -4.92025 -0.28835 1.0
-12.308101 6.692549 12.842583 3.0
1.701664 14.295057 27.303635 2.0
5.66645 19.942699 35.724403 2.0
1.120096 9.10883 29.667074 2.0
-13.75315 -1.62215 -6.0491 1.0
-12.721075 3.0977 -35.509674 0.0
-12.03075 6.15375 15.660851 3.0
-14.04995 4.288 -22.75115 0.0
-3.714295 15.509836 22.078405 2.0
-7.557217 9.6844 8.150417 2.0
-12.681519 6.29471 0.499061 2.0
12.151417 18.3172 40.829586 2.0
-11.45535 4.5469 -19.41995 0.0
-9.1594 4.31695 13.10935 2.0
-13.95845 3.4528 -16.19895 1.0
-12.80045 6.1983 3.01545 3.0
-11.66127 5.0989 -16.50247 2.0
-17.319401 2.093763 -6.109275 1.0
-13.095 2.44165 -15.682051 1.0
-10.9014 9.450701 0.15495 2.0
-13.67025 4.9212 -15.60525 1.0
-17.310083 -11.257199 5.696484 1.0
-11.876121 8.903828 20.521921 3.0
-10.29171 10.069201 2.47661 2.0
-12.72585 -11.4459 5.9344 1.0
-8.9261 -5.76875 0.86395 1.0
-13.703012 -2.3533 -4.36265 1.0
-13.82825 2.5545 -32.562351 0.0
-6.14915 10.0302 11.84265 2.0
-13.315726 8.315312 -1.091875 2.0
11.27215 14.9263 40.999149 2.0
-10.6863 3.51535 -16.128849 1.0
-13.10006 -2.540612 -3.911991 1.0
-20.677963 -4.665672 1.929707 1.0
4.293437 10.255875 35.115135 2.0
-11.111038 -12.03915 7.510875 1.0
5.021517 17.074434 32.575516 2.0
-13.056683 2.565 -39.110882 0.0
-14.464284 4.5074 -35.627453 0.0
-12.64685 7.8209 -8.62965 2.0
-13.34715 -9.8487 3.9375 1.0
-11.905271 5.73798 19.532108 3.0
-22.091049 -11.6104 10.20355 1.0
-13.504451 5.443867 -36.055149 0.0
-4.927025 16.309824 21.947624 2.0
-17.78475 -0.562 -3.724017 1.0
-11.26205 3.6768 -41.156052 0.0
-10.4863 2.8699 -14.7024 1.0
-11.89665 4.5567 -3.74225 2.0
-12.906867 -8.056017 2.162817 1.0
8.40425 16.832001 36.295448 2.0
-18.901249 -5.953575 1.857738 1.0
-10.51025 8.0092 -4.70505 2.0
13.54315 18.569401 42.017551 2.0
-18.136049 -11.1189 5.85555 1.0
-12.482984 7.262833 5.713183 3.0
-11.66725 -10.5874 5.55865 1.0
-18.32115 -12.1481 6.92405 1.0
-0.68201 7.66438 28.480051 2.0
-10.50473 -7.09784 1.88555 1.0
-1.745683 14.255466 22.966349 2.0
5.931775 16.500299 33.409023 2.0
-10.874916 5.045267 1.12075 2.0
-8.392551 -0.1226 -8.85385 1.0
0.227975 7.949625 29.514551 2.0
-13.61795 5.09175 -13.71465 2.0
-17.293449 -8.0369 2.54935 1.0
5.37595 14.6191 32.139851 2.0
-7.889166 -2.544783 -2.694733 1.0
-2.54295 8.985 21.971251 2.0
-12.82365 5.9509 -23.457951 0.0
-14.723561 -11.927171 6.09989 1.0
3.46265 9.724396 34.116928 2.0
-14.48715 4.3063 -39.550049 0.0
-13.74955 7.1198 -2.41565 2.0
-19.880451 -12.6554 8.76705 1.0
-16.131651 -12.136666 6.423517 1.0
-10.619283 6.669767 -9.29305 2.0
-20.09465 -9.98625 6.0437 1.0
-7.76675 -5.395 0.45975 1.0
12.99945 19.819799 41.857349 2.0
-19.96693 -8.91358 5.01703 1.0
-7.17915 12.689 13.15415 2.0
-12.357216 3.7371 -18.716949 1.0
-16.290926 -6.06505 0.583 1.0
-11.714869 5.53138 21.878571 3.0
-13.946593 4.903943 -30.530466 0.0
-11.92705 4.5064 -30.621651 0.0
-12.712175 5.321875 -36.365902 0.0
-11.734417 4.507834 -39.489666 0.0
-11.12845 8.7079 -3.29605 2.0
-13.025365 6.905586 27.905764 3.0
-13.60145 5.4084 -31.753349 0.0
-11.98905 7.4102 -9.54515 2.0
-11.854094 9.855828 28.296423 3.0
-9.6974 3.02355 -15.09225 1.0
-1.05195 12.917825 23.178251 2.0
-12.455917 6.710733 19.68265 3.0
12.51611 18.89852 41.290527 2.0
-19.675224 -11.9085 7.492425 1.0
-12.300414 3.098944 -16.470261 1.0
-11.718349 10.9122 3.75235 2.0
-11.90275 4.3865 -9.32595 2.0
-9.711 5.44945 14.48325 3.0
-21.293949 -6.2693 3.6675 1.0
-3.99345 7.5947 20.500851 2.0
-12.347475 8.08465 18.490849 3.0
-11.22765 5.122 16.395651 3.0
-10.497684 4.1749 9.673917 2.0
-11.7716 4.50915 -37.869099 0.0
-13.81835 9.0752 35.118649 3.0
-11.76855 8.0693 -6.56655 2.0
5.07635 10.735027 35.507809 2.0
3.149122 11.931257 30.323492 2.0
-8.036478 8.105286 6.493664 2.0
-22.249048 -8.675617 6.921833 1.0
3.7533 13.285749 30.651901 2.0
-18.25485 -8.6902 3.45775 1.0
-2.7728 15.07215 22.56945 2.0
-14.435616 3.710367 -33.471684 0.0
-13.64345 2.3983 -38.50985 0.0
-12.49525 5.1674 -2.85465 2.0
-9.142577 7.295791 1.069741 2.0
-12.18765 4.9978 -29.62245 0.0
-8.01665 11.7003 9.79555 2.0
-13.67095 7.4524 30.766251 3.0
-11.04185 5.1245 14.46265 3.0
-13.5585 6.5574 -3.9532 2.0
-3.61105 7.4353 22.60565 2.0
-15.092278 -15.511343 10.267415 1.0
-13.0446 2.8236 -36.235748 0.0
-11.689518 -2.856678 -3.267139 1.0
-14.1905 4.29125 -25.4617 0.0
-3.89825 9.275686 18.517097 2.0
-6.325879 7.888858 12.118592 2.0
2.50861 12.07564 29.109192 2.0
1.33335 17.533381 29.097372 2.0
-2.08075 12.696967 21.13525 2.0
7.336136 15.706042 35.12965 2.0
14.0978 17.9018 42.108799 2.0
-10.511509 -4.89461 -0.65863 1.0
-10.32275 10.62305 3.9817 2.0
-5.931358 6.520491 16.898817 2.0
-16.97765 0.8322 -5.39275 1.0
-4.72705 8.303644 17.080362 2.0
-11.693184 3.073 -15.543017 1.0
-7.848475 5.905525 11.4941 2.0
-11.899384 5.092867 -23.884649 0.0
-14.12945 -0.0956 -7.66595 1.0
10.961051 15.458534 40.067249 2.0
-4.299725 5.7393 23.108725 2.0
-9.62175 4.531 12.30745 2.0
-9.492275 -5.46465 0.34265 1.0
2.886775 12.90705 29.279202 2.0
-10.296959 10.3062 11.293387 2.0
-14.1171 2.07505 -11.489 1.0
0.89085 15.097456 26.501184 2.0
-0.7949 8.1594 27.336601 2.0
-12.3348 7.684067 7.062083 3.0
-0.557717 9.143467 26.330719 2.0
-17.089024 -10.467175 4.74725 1.0
-16.300396 -6.69195 1.122863 1.0
-13.5168 5.04605 -2.88775 2.0
-3.530273 6.345877 24.124498 2.0
-19.323116 -10.276099 5.755917 1.0
6.54235 17.3962 34.315048 2.0
-18.82225 -12.4395 7.53655 1.0
-3.9556 7.3568 21.18815 2.0
-11.68015 5.27955 2.35805 2.0
9.20195 18.6679 38.335251 2.0
-12.829216 6.053667 1.92705 3.0
-11.891425 -0.681375 -6.890225 1.0
-9.671164 4.887757 8.091864 2.0
-11.79345 5.8131 8.82095 3.0
-8.497596 -3.87944 -1.132677 1.0
-11.89125 5.264833 -0.498983 2.0
6.16815 12.42215 35.033699 2.0
-5.073917 9.878799 14.506249 2.0
-8.559664 7.299043 5.287778 2.0
-12.4618 7.2712 9.68655 3.0
-15.895849 -10.254213 4.297535 1.0
8.52075 13.5402 39.156651 2.0
-7.079972 7.704378 10.107227 2.0
-17.302073 -2.089794 -2.513256 1.0
-6.930216 6.705051 12.70519 2.0
-16.6605 -7.5961 2.04 1.0
-6.338094 6.682755 15.710705 2.0
0.9295 19.002199 31.265202 2.0
-13.5299 5.5471 -26.29495 0.0
-11.5627 9.3632 13.870899 3.0
-10.761875 6.3512 -9.956575 2.0
-19.473116 0.312767 -3.085283 1.0
-11.31055 11.960101 8.353517 2.0
-11.51525 5.681833 -20.135351 0.0
-11.314626 10.148849 1.49895 2.0
-8.688618 13.0806 12.492351 2.0
-12.05385 6.515 -14.5611 2.0
-11.77805 4.5338 -41.074848 0.0
-10.35071 10.148001 20.69165 3.0
-9.098101 13.81925 14.5427 2.0
-4.95003 6.09752 21.108469 2.0
-8.8798 12.11105 9.69065 2.0
-20.747049 -7.7648 4.67875 1.0
-9.368549 7.36475 -1.0784 2.0
-13.64655 8.47915 31.52685 3.0
-16.892433 -4.911461 -0.118011 1.0
-17.56925 -4.0493 -0.64345 1.0
-2.725306 14.2939 21.881241 2.0
-13.80625 3.5573 -17.661751 1.0
-12.561817 6.905167 1.66415 2.0
-11.09138 -4.332274 -1.51729 1.0
-5.31936 6.69502 18.69014 2.0
-12.75625 5.078 -0.57885 2.0
9.620716 19.658133 39.167084 2.0
-11.132469 10.303305 16.102232 3.0
-12.329635 9.112136 27.096054 3.0
-12.68265 5.2292 -40.269451 0.0
-0.979883 9.536067 24.953415 2.0
-12.79155 3.3744 -23.653851 0.0
-13.101279 8.911457 0.285107 2.0
-12.471649 7.047634 8.323684 3.0
-0.06165 8.85758 28.05451 2.0
-11.540318 5.632767 12.921582 3.0
10.63365 15.39495 39.124702 2.0
8.35035 19.9757 38.460751 2.0
-20.896051 -10.897401 7.549225 1.0
0.1596 17.922749 28.43755 2.0
-1.87907 16.93022 25.488611 2.0
-12.75285 4.2844 -13.95325 2.0
-15.70295 -7.8447 1.58725 1.0
0.71925 10.87783 26.901964 2.0
-13.334725 -14.087475 9.1026 1.0
-11.28165 9.37435 -0.7241 2.0
-10.060317 9.441867 1.160283 2.0
-1.73225 12.473228 21.889776 2.0
-14.51785 -8.17465 2.2049 1.0
-11.833683 4.4966 -36.89185 0.0
-13.279117 1.2612 -11.462483 1.0
-2.720792 9.718783 20.904764 2.0
6.19115 15.089733 33.124783 2.0
0.91115 18.8454 30.022751 2.0
-8.06965 -0.7858 -7.70815 1.0
7.176884 16.5487 35.016815 2.0
-10.341084 10.691634 18.48925 3.0
-13.1918 7.484275 29.026299 3.0
-12.513494 6.692311 5.082894 3.0
0.281462 10.313725 26.501225 2.0
-12.50575 4.5834 -2.43165 2.0
-6.47085 15.931066 20.247519 2.0
-2.39995 10.9958 20.366249 2.0
-8.64905 9.113199 5.1033 2.0
-7.0398 12.97425 14.667749 2.0
-14.49515 3.7366 -29.6968 0.0
-15.76815 0.6001 -6.37775 1.0
-11.11315 -7.463 1.82335 1.0
-12.63545 6.54705 26.474051 3.0
-17.24375 3.4759 -8.25915 1.0
-12.420726 7.448575 10.9338 3.0
2.88575 15.1114 28.79105 2.0
-12.963058 8.909491 29.291765 3.0
1.17695 8.4916 31.836149 2.0
-0.290383 18.676065 29.450216 2.0
8.560664 13.663701 37.495949 2.0
-13.143849 9.54684 31.49259 3.0
-11.10595 10.11183 13.921921 3.0
-7.76465 5.1372 14.91865 2.0
-21.871349 -11.2047 9.09065 1.0
-1.2843 10.4717 23.359575 2.0
-3.03675 10.5665 20.02985 2.0
-6.8803 14.14025 17.04285 2.0
-8.84665 8.7745 4.29245 2.0
-2.215025 11.919001 20.846226 2.0
6.22815 13.3334 34.129448 2.0
-16.25415 3.7343 -11.21585 1.0
-10.69435 10.413 23.730551 3.0
3.15835 15.111134 29.488092 2.0
4.085 16.097425 30.507475 2.0
-13.40145 8.2279 32.836449 3.0
-16.783951 1.674 -6.31955 1.0
-12.18745 7.929833 8.307083 3.0
-11.46995 4.5715 -34.84185 0.0
-13.88645 5.08444 -33.079651 0.0
-12.764849 7.913575 26.51885 3.0
-14.072249 5.309744 -34.688942 0.0
-2.21015 8.4538 24.245701 2.0
-9.55375 12.6213 9.53095 2.0
-3.125 17.257925 24.702974 2.0
-7.6119 7.261625 8.862001 2.0
-1.26265 14.101542 23.515509 2.0
2.04865 9.719201 30.323471 2.0
-6.6738 15.33625 19.0662 2.0
-7.318983 8.490533 8.8968 2.0
-18.723883 -17.260435 12.381383 1.0
-14.057475 3.28995 -39.136452 0.0
4.553779 13.695271 31.476522 2.0
-13.5532 5.57245 -25.076851 0.0
-6.13345 16.193701 21.29565 2.0
-16.890551 -3.1253 -1.59675 1.0
-12.479751 4.539387 -6.112613 2.0
-18.693298 -9.283393 4.515892 1.0
-11.97525 8.976 24.27565 3.0
3.38355 17.1782 30.82325 2.0
-7.53125 -1.157433 -5.262483 1.0
-19.042049 -2.4276 -1.44545 1.0
-11.38205 8.975201 9.03755 2.0
-2.908113 6.712394 25.103312 2.0
-12.6929 6.49045 28.809851 3.0
-11.356183 9.757134 18.094316 3.0
-11.46215 6.4215 -16.073351 2.0
-12.89175 5.7809 -1.59935 2.0
-5.151844 7.108876 17.886581 2.0
-1.35105 15.0524 24.083536 2.0
-14.882125 -4.484 -1.6503 1.0
-11.65185 4.609 -21.694349 0.0
7.04055 13.6956 34.974049 2.0
-12.79155 6.27295 -2.83365 2.0
-13.65675 2.5504 -43.266701 0.0
-4.487341 7.694519 19.090868 2.0
-16.510164 -15.082867 9.5336 1.0
-11.937778 8.326444 6.045735 2.0
-0.4807 9.858776 25.867426 2.0
3.2893 16.308949 29.654449 2.0
-14.49174 -14.107539 8.36146 1.0
8.22575 12.7715 38.15115 2.0
2.484917 18.261335 31.086748 2.0
-13.9655 -14.834351 9.57825 1.0
-18.502583 -1.73092 -2.32898 1.0
10.58045 19.757099 40.55365 2.0
-18.19915 -15.2528 10.40195 1.0
-12.505834 10.480267 4.721194 2.0
0.2905 14.8703 25.26725 2.0
5.701239 13.294788 33.307972 2.0
-13.52755 9.451349 33.727303 3.0
-9.4694 -2.74395 -2.58525 1.0
-11.8964 5.73335 24.43355 3.0
-11.098456 -10.07057 5.082019 1.0
-8.43261 5.2116 12.253171 2.0
-14.146584 3.709634 -38.157284 0.0
-11.123851 -12.859467 8.653117 1.0
-7.698007 -3.309843 -1.764478 1.0
-14.47865 -3.25 -3.70195 1.0
-13.05375 8.612001 -2.62035 2.0
-14.049425 5.254725 -36.901649 0.0
-13.496532 2.83295 -33.670734 0.0
-20.321993 -2.497029 -0.28795 1.0
-7.692161 13.274423 14.313784 2.0
-11.707006 5.714266 -18.846539 2.0
-14.492534 -0.703317 -6.317251 1.0
12.51825 16.979 41.579048 2.0
-18.92647 -13.516121 9.07229 1.0
-8.31899 5.5104 10.693549 2.0
-10.06665 5.5011 19.13685 3.0
-14.05444 3.502077 -41.310272 0.0
-12.3762 3.37945 -17.72175 1.0
-11.75363 8.138701 2.49229 2.0
-10.978183 5.148133 -7.517617 2.0
9.137617 16.517265 37.493717 2.0
-6.677721 5.5034 17.900351 2.0
-11.85835 4.4885 -8.253799 2.0
-11.86205 -1.18765 -5.6582 1.0
-7.52195 5.0181 16.20385 2.0
-20.478149 -3.5046 0.80455 1.0
-16.321951 -4.747634 -0.533439 1.0
-10.446109 5.898933 -5.512937 2.0
-5.75425 15.03415 19.5056 2.0
-11.65415 -3.5856 -2.38615 1.0
-8.151283 -6.4158 1.578617 1.0
-14.141483 4.3036 -31.744316 0.0
-12.25059 8.096319 13.092151 3.0
-13.493846 -6.863614 0.874912 1.0
-21.115351 -9.05965 5.903025 1.0
-18.114149 -3.300375 -0.932513 1.0
-10.22565 4.8737 18.63825 3.0
-12.0518 6.17015 10.4106 3.0
-10.655951 5.0301 3.9103 2.0
-9.40015 10.3521 4.87185 2.0
-11.354568 5.488933 -13.959601 2.0
-17.682106 -10.120601 4.696494 1.0
-11.55873 9.546199 16.945108 3.0
7.08905 17.9072 35.228249 2.0
-13.334384 0.913533 -10.540383 1.0
-13.8862 5.10855 -27.923599 0.0
-10.42045 4.8459 17.371149 3.0
-14.896579 -2.143657 -4.108264 1.0
-12.86905 5.3049 -4.88765 2.0
-7.883565 -0.832729 -6.476293 1.0
-7.677116 10.372733 9.495884 2.0
-19.515394 -5.524372 1.908393 1.0
-14.36325 2.958 -34.41605 0.0
-14.8908 -9.20255 3.0466 1.0
-22.20075 -12.7617 11.00135 1.0
-1.093375 8.693675 26.072933 2.0
-11.11615 1.8835 -12.14055 1.0
-7.09665 11.1969 11.77145 2.0
-11.554951 5.62135 10.230551 3.0
-11.49886 11.500167 6.906172 2.0
-9.46735 5.4555 17.760851 3.0
-13.071934 5.127683 -7.290234 2.0
-11.79945 4.6138 3.27045 2.0
-12.724751 5.9822 -25.311199 0.0
-11.81045 5.2073 -32.77055 0.0
-14.277283 0.3253 -8.299251 1.0
-12.7395 5.076175 -41.832901 0.0
-11.08735 4.9321 -4.130617 2.0
-9.488757 6.490969 0.729765 2.0
4.707883 18.493101 33.439747 2.0
-17.661551 -6.21605 1.38095 1.0
-16.896503 -8.518796 2.913696 1.0
-14.29465 4.5756 -29.174351 0.0
-12.6433 3.61575 -19.770802 0.0
-11.970817 -8.414433 2.842183 1.0
-14.35975 3.0548 -12.89195 1.0
-3.74225 13.825 20.09705 2.0
-8.103717 -3.038967 -2.274483 1.0
-13.02755 3.2547 -21.99715 0.0
-9.321226 -1.652675 -4.060075 1.0
-11.75555 8.8141 -4.38275 2.0
-12.55205 9.465151 -0.6212 2.0
-3.299688 8.685638 20.688137 2.0
-13.39935 6.9024 29.46225 3.0
-12.533383 2.691667 -15.057651 1.0
11.15695 16.706301 39.829788 2.0
-11.95425 5.4082 -33.966148 0.0
-13.11355 9.5592 3.85485 2.0
-8.736477 7.294497 4.14121 2.0
-12.57005 -12.4401 7.18215 1.0
-13.301446 -10.507844 4.926777 1.0
0.129323 9.64542 27.322308 2.0
-10.3283 12.284599 8.96835 2.0
-16.332624 -16.582874 11.51715 1.0
-13.464428 6.91791 -7.726183 2.0
-11.95345 6.0153 -22.62285 0.0
-8.875128 -8.286055 3.289483 1.0
-8.8462 10.341776 6.1292 2.0
-9.307233 -0.256817 -7.424016 1.0
0.910183 17.058334 28.07485 2.0
-9.467592 6.897814 -0.307164 2.0
-15.97495 -10.9958 5.20085 1.0
3.057683 9.911651 32.323151 2.0
-14.2159 3.5271 -31.92025 0.0
-8.884884 -7.356467 2.436917 1.0
-10.912321 5.499472 -8.905464 2.0
-13.06715 5.513833 -34.890217 0.0
-12.846101 9.6406 30.514149 3.0
-11.848978 8.872357 11.914679 3.0
8.169399 19.524849 37.634949 2.0
-11.653601 4.7086 -10.7424 2.0
-7.50875 8.8239 6.78005 2.0
-11.99555 8.7901 23.14365 3.0
-11.299871 -1.71145 -4.688993 1.0
-9.65415 0.582 -10.13225 1.0
-13.1259 7.3671 31.241798 3.0
-13.47415 5.6531 -32.519402 0.0
3.91205 13.912101 30.450975 2.0
-0.917717 11.7226 23.46315 2.0
-14.162517 3.511583 -32.716568 0.0
-11.499184 4.696956 2.065983 2.0
5.97125 12.8444 34.519749 2.0
6.2483 18.678375 35.107475 2.0
-9.660251 13.016566 11.512451 2.0
-18.066212 -16.244238 11.179213 1.0
-12.30275 7.7082 -1.28255 2.0
-1.70155 7.1728 27.650949 2.0
6.82955 11.9401 36.221649 2.0
3.350517 19.359268 33.929016 2.0
-8.11865 8.308 4.06215 2.0
1.27353 9.498301 29.138632 2.0
-3.70915 16.9769 23.879452 2.0
-19.270292 -16.275023 11.757094 1.0
-16.677 -9.828899 3.75995 1.0
2.92965 9.481212 33.319241 2.0
-4.22395 9.75215 17.907 2.0
-10.04035 9.8724 8.94045 2.0
0.31895 8.208201 30.665251 2.0
-18.705523 -17.693743 12.895651 1.0
-11.3378 1.51865 -11.5791 1.0
-3.507156 14.086105 20.74925 2.0
-12.441191 10.9017 6.67171 2.0
-10.73165 0.4118 -9.06025 1.0
-4.75225 11.0695 15.37525 2.0
-12.15045 8.2857 16.633551 3.0
-10.56375 5.4101 21.75655 3.0
0.63915 18.7589 30.68955 2.0
-12.98215 2.77745 -37.266052 0.0
-8.09515 -1.5769 -4.1963 1.0
-17.475216 -9.447833 3.94905 1.0
-11.78265 5.27555 0.56415 2.0
-11.939881 11.552731 7.710658 2.0
-18.68465 -8.7671 4.05045 1.0
-1.438188 8.050528 26.487459 2.0
-12.879634 3.06475 -32.480083 0.0
-12.734049 5.699907 -2.489171 2.0
-10.55875 12.9834 12.59325 2.0
-4.458321 9.298572 17.292208 2.0
-10.43345 8.1919 -3.81235 2.0
-13.8877 -11.13335 5.2533 1.0
-7.76595 12.0256 10.78145 2.0
-11.690483 9.106101 -2.99435 2.0
-10.056499 5.641675 0.287175 2.0
-13.48313 5.72392 -7.76095 2.0
-13.30165 4.8447 -12.30515 2.0
-21.49155 -12.9825 10.63105 1.0
-11.87789 10.751419 4.45049 2.0
-14.057521 3.696672 -42.274151 0.0
-13.478935 -14.9568 10.287093 1.0
-0.83 18.52865 28.640499 2.0
-11.42375 5.2338 7.44285 3.0
-13.704757 8.52408 32.294117 3.0
-17.30295 -17.49354 12.71605 1.0
-11.874001 6.74035 -13.027849 2.0
-12.19335 -13.4188 8.68785 1.0
13.54295 17.91925 42.483299 2.0
-11.74475 6.2393 26.203449 3.0
-11.245465 9.645128 21.49439 3.0
1.473025 11.938975 27.24435 2.0
3.241441 12.706819 30.117262 2.0
-11.67715 6.3685 -17.191351 2.0
-11.304084 10.334666 2.682016 2.0
-16.287966 2.7339 -8.8936 1.0
-17.903797 -2.121626 -2.141045 1.0
-12.50885 3.70295 -27.886101 0.0
-15.25845 -5.5036 -0.87305 1.0
-7.78275 7.3474 8.12155 2.0
-3.390317 9.699266 18.94755 2.0
-5.149684 10.6729 14.28725 2.0
-14.191999 4.5059 -28.087 0.0
11.74895 17.694633 39.963451 2.0
-12.41515 2.8201 -40.363049 0.0
-12.49435 6.908946 6.283889 3.0
1.704356 17.718971 29.655697 2.0
-19.064548 -1.89486 -1.85066 1.0
-17.470751 2.8983 -6.38575 1.0
-11.4411 5.1175 22.477001 3.0
-3.929464 8.347414 19.296335 2.0
-1.51981 9.73352 23.738729 2.0
-15.483726 -12.24115 6.51515 1.0
-14.501833 -1.859582 -4.767197 1.0
-11.710504 11.110685 5.677996 2.0
-5.9 9.11281 12.906059 2.0
-9.86745 5.4219 13.81985 3.0
-12.07681 -13.52836 9.47407 1.0
-13.5282 6.34115 -4.867525 2.0
-10.04655 13.3962 13.88365 2.0
-2.485979 16.709585 24.671322 2.0
-13.2823 6.65245 -11.6469 2.0
-6.14535 5.510033 19.101416 2.0
-12.87485 5.0479 0.84855 2.0
-10.720249 5.8922 -7.959475 2.0
-12.623981 6.692553 3.909143 3.0
-12.29335 7.702744 10.336773 3.0
-4.723683 15.835099 21.517916 2.0
-12.463875 3.712525 -21.889126 0.0
-10.9409 5.34125 13.3783 3.0
-6.72135 9.904834 10.48045 2.0
-18.701082 1.362567 -4.65665 1.0
4.79805 20.259501 35.16375 2.0
-12.712494 8.341943 -5.055579 2.0
-12.41415 8.7388 25.283649 3.0
