# .PCD v0.7 - Point Cloud Data file format
VERSION 0.7
FIELDS x y z label
SIZE 4 4 4 4
TYPE F F F U
COUNT 1 1 1 1
WIDTH 1488
HEIGHT 1
VIEWPOINT 0 0 0 1 0 0 0
POINTS 1488
DATA ascii
-17.504625 3.31505 10.4931 1.0
-19.841383 4.311203 13.109293 1.0
-17.5851 9.32435 -17.2216 2.0
-15.7347 3.08265 -14.55915 0.0
-9.538328 13.467622 19.124643 2.0
-3.4589 7.27975 28.117401 2.0
3.1352 18.18845 32.9884 2.0
-11.3292 7.42675 10.8914 2.0
-22.471451 -15.765551 0.85945 0.0
-16.193701 4.75785 4.9589 1.0
-20.5732 11.34575 -40.202702 3.0
-18.4207 10.85235 -33.703999 3.0
0.4892 5.80545 32.766399 2.0
5.67275 15.2793 33.795502 2.0
-12.4084 8.62035 8.6057 2.0
7.2031 13.37275 34.354099 2.0
-24.441576 -7.69075 -5.236525 0.0
-18.9079 11.8991 -30.066551 3.0
19.882301 15.896225 40.506752 2.0
-13.225641 13.753309 14.061079 2.0
-15.16535 7.681 -2.624 2.0
-22.092535 -11.890617 -2.529283 0.0
-19.1238 10.8856 -4.176925 2.0
23.475451 15.325951 41.792648 2.0
-8.73735 13.8571 20.044201 2.0
-21.9692 9.03275 -19.758049 0.0
-19.052549 -4.34645 -7.74625 0.0
-16.098598 6.1251 1.9213 1.0
-17.959499 10.34065 -3.6727 2.0
-1.753 5.316351 31.153467 2.0
1.92755 6.0746 33.894447 2.0
-23.89155 3.304137 36.895721 1.0
-24.747749 -0.0288 40.444901 1.0
-18.777201 7.01085 -3.8654 1.0
-20.302074 11.69825 -33.676277 3.0
-19.776699 8.16965 -24.0637 0.0
-19.695826 -13.506233 -0.304192 0.0
-19.027901 10.20785 -9.0081 2.0
-18.1478 9.55465 -26.8298 3.0
-5.679634 13.270017 23.895599 2.0
23.281975 10.987576 42.3755 2.0
-16.131529 5.899777 -5.663382 2.0
-20.306101 1.88955 -13.481975 0.0
-20.552519 5.69795 17.45248 1.0
-17.705481 3.643532 -15.130282 0.0
-16.584499 10.93805 2.5841 2.0
-18.700632 11.100051 -16.892866 2.0
-4.86675 5.265825 28.088526 2.0
-20.3652 10.08645 -29.811249 3.0
-9.1331 5.90525 18.810699 2.0
-21.164402 3.87713 22.875259 1.0
-16.072641 2.63699 -13.558741 0.0
-24.032749 -4.6426 -7.05085 0.0
-19.286072 8.527379 6.088014 1.0
6.6841 16.91548 34.685741 2.0
-20.955198 2.08991 24.691381 1.0
-5.2732 12.98435 24.331301 2.0
-5.946133 9.701817 22.770332 2.0
-18.723099 10.8827 -38.896099 3.0
-18.560133 9.348849 4.506233 1.0
-7.1544 7.73685 21.9389 2.0
-18.954517 5.706133 4.0713 1.0
-16.53735 2.9804 11.1826 1.0
-25.060751 4.496042 -11.488525 0.0
-20.183651 3.84375 16.324949 1.0
-18.261726 11.299326 -33.123924 3.0
-26.7111 -13.16715 -0.3991 0.0
-19.67411 5.912106 6.684856 1.0
-20.8584 11.42555 -47.455704 3.0
-19.9648 -3.59295 -8.3524 0.0
-17.295624 10.653675 -6.5435 2.0
-17.1315 11.09705 6.3212 1.0
-19.7953 7.36425 8.4352 1.0
-12.483434 11.314183 10.824368 2.0
-18.743584 9.771884 -32.274136 3.0
-18.713249 11.4972 -41.17635 3.0
-18.297968 1.752317 -12.685066 0.0
-19.9687 -1.11655 -10.1914 0.0
1.3897 15.915517 31.300634 2.0
-17.3265 -5.35755 -6.3859 0.0
-16.83205 10.52305 -0.14995 2.0
-16.254801 6.77185 -0.4451 1.0
-4.13645 6.11905 27.7577 2.0
-19.302988 8.510493 6.889543 1.0
-8.050741 14.909891 21.622561 2.0
-15.679041 11.26691 2.92044 2.0
-16.299101 6.8823 -7.17395 2.0
-20.272575 0.147975 27.509651 1.0
-4.4535 11.16975 24.222 2.0
-20.4622 7.28945 23.071335 1.0
-2.8517 9.2724 27.5133 2.0
-18.301399 10.709875 -7.273925 2.0
-6.9689 5.14075 24.15645 2.0
-17.2714 10.43925 -0.7512 2.0
-15.1233 9.71435 -0.6688 2.0
-28.881544 -4.494441 -4.318591 0.0
-20.109467 -7.32575 -5.5648 0.0
7.729451 12.091074 34.91856 2.0
-11.2266 11.21875 13.2428 2.0
-21.592199 5.53345 26.929632 1.0
-19.0714 11.05725 -14.843 2.0
-23.12653 2.10048 32.893822 1.0
-6.891 7.41005 23.421301 2.0
-26.98185 -4.4947 -5.5466 0.0
-28.32056 -12.099275 0.13475 0.0
-1.452745 9.88645 28.683401 2.0
-17.45545 9.33655 -16.315599 2.0
-21.339214 5.699964 25.8584 1.0
-5.2372 8.91755 24.5693 2.0
-20.6754 -5.75265 -6.7672 0.0
-19.2108 4.74145 8.6283 1.0
-18.704901 0.25545 24.4088 1.0
-24.100449 -17.132126 1.716375 0.0
-20.377266 11.129083 -31.1458 3.0
-19.391449 8.18755 -13.496401 1.0
-10.7466 14.00005 17.5949 2.0
-19.848101 10.60495 -8.5177 2.0
-10.453575 6.492675 12.836124 2.0
-20.733801 -4.355375 -7.761875 0.0
-16.881533 9.481616 -13.095734 2.0
9.66044 14.27811 35.544342 2.0
-18.074051 5.02985 4.81195 1.0
-28.345068 -9.719951 -1.767333 0.0
-28.251049 1.23035 50.129402 1.0
10.0526 13.094009 35.91964 2.0
-19.4468 7.699083 -5.555267 1.0
-16.3153 10.63195 -8.8945 2.0
-18.1684 9.328449 -21.0508 3.0
-21.35088 2.09333 -12.926221 0.0
24.73245 15.103283 42.240067 2.0
-16.868601 6.86325 -2.6065 1.0
-19.359739 8.91031 -6.28744 1.0
-16.707024 2.09015 14.862375 1.0
-10.628901 9.10445 13.250549 2.0
-23.281433 -10.710017 -3.3447 0.0
-21.503565 0.143483 -11.488833 0.0
-27.529301 -16.28075 1.0654 0.0
-25.509199 -8.7266 -4.167533 0.0
-16.100067 3.73975 9.092099 1.0
10.723445 14.089229 36.055191 2.0
-16.891867 10.640117 -15.0818 2.0
-17.616934 10.038217 -20.083735 3.0
-1.87312 12.883591 27.57114 2.0
-19.134701 8.413 -15.747 1.0
-21.345325 1.4706 27.698399 1.0
-17.307278 11.04875 -16.510517 2.0
-19.652 0.91815 21.966101 1.0
25.885965 16.044783 42.674534 2.0
13.328999 12.494267 37.628433 2.0
-28.739138 -14.325362 2.047613 0.0
3.0904 14.27565 31.995899 2.0
-25.094387 -3.2893 -7.239838 0.0
-20.317188 6.51299 12.948509 1.0
-22.490559 5.25218 37.669411 1.0
-16.0917 13.96905 8.162 2.0
-9.081808 13.117116 19.509911 2.0
-20.726782 4.887034 18.079901 1.0
14.4081 14.12785 37.677898 2.0
-19.494034 0.35415 24.8971 1.0
-18.646299 9.01855 -21.932699 0.0
9.909233 15.428817 35.772499 2.0
-2.4329 7.66005 28.498199 2.0
-24.080133 3.518717 42.651367 1.0
-24.8792 1.112525 39.167252 1.0
-11.152165 5.893084 8.108466 2.0
-3.269317 7.8977 27.880684 2.0
28.491098 14.074383 42.678204 2.0
-22.5497 0.2802 -10.573299 0.0
2.243 11.48075 30.6117 2.0
-16.867083 2.682983 -13.700416 0.0
-20.054399 10.74045 -24.3106 3.0
-12.084425 14.2482 16.551699 2.0
-15.06916 11.292191 4.68676 2.0
14.70917 9.10123 39.919807 2.0
4.8883 18.15975 34.2066 2.0
-9.27995 10.488899 16.114201 2.0
-27.759628 -10.535621 -1.761514 0.0
-21.799299 9.98125 -19.997801 0.0
27.151451 12.14105 42.7729 2.0
-8.2717 16.543949 22.7612 2.0
-8.4249 4.35505 22.0732 2.0
-20.4293 10.16405 -10.0607 2.0
-15.442249 3.56675 -16.770901 0.0
-2.885843 17.289364 28.838343 2.0
-20.358633 6.303317 14.717134 1.0
-0.6819 6.80125 30.9895 2.0
-8.544881 6.31133 20.49118 2.0
-25.279135 1.528517 40.305737 1.0
-5.318033 10.705716 23.884834 2.0
-22.584049 1.49165 -11.363649 0.0
-20.623159 11.29441 -39.03334 3.0
-20.6213 6.9506 22.285999 1.0
5.539962 13.088325 33.557812 2.0
-23.903301 1.6581 -10.798 0.0
-23.495918 -11.727368 -2.5421 0.0
14.919816 15.911834 38.322784 2.0
-16.634701 3.58465 7.4723 1.0
-11.1946 9.73705 12.5419 2.0
16.113913 16.301271 38.965771 2.0
-15.925067 -0.757483 -9.764767 0.0
-4.3109 5.25795 28.731951 2.0
-14.758599 10.654984 3.675433 2.0
-16.702374 8.5053 -10.51905 2.0
-1.5001 10.19855 28.009399 2.0
-18.734968 9.962417 -33.299366 3.0
-20.1549 10.54075 -46.783199 3.0
-1.7437 7.34955 29.449551 2.0
6.162543 13.314136 33.853203 2.0
2.6933 8.26335 33.6292 2.0
8.87156 17.29961 35.874245 2.0
-23.8435 3.61285 37.963501 1.0
-16.914658 12.882994 4.4971 2.0
-20.545025 10.107201 -33.704399 3.0
9.284301 10.12905 36.485062 2.0
-0.5547 13.438617 28.967798 2.0
-0.073943 8.668851 30.729671 2.0
-7.92395 9.920401 19.124701 2.0
-3.296933 6.078167 28.902832 2.0
-17.716272 10.838893 -10.895101 2.0
-26.296925 -4.465775 -6.027125 0.0
-5.6216 5.20955 27.120199 2.0
-6.3653 6.26925 24.3885 2.0
-20.30695 13.496099 -44.836601 3.0
-15.858139 13.30793 7.32484 2.0
4.315567 8.657683 34.447334 2.0
-16.3729 8.3831 -8.6253 2.0
-20.530832 11.721817 -48.569733 3.0
-23.289112 -5.242725 -7.091238 0.0
-18.6991 2.55545 13.5183 1.0
-18.473467 12.50125 -41.290134 3.0
5.42485 8.98485 34.921898 2.0
-11.2753 4.73045 4.0072 2.0
-20.217751 1.1761 24.1145 1.0
-18.51725 0.30545 23.67535 1.0
-7.3882 16.028851 22.999201 2.0
-20.538933 12.457217 -42.274765 3.0
-19.076239 10.105531 -36.728996 3.0
-21.36475 4.42645 -14.929649 0.0
-24.478939 -5.04451 -6.6588 0.0
-23.479584 3.306484 35.090412 1.0
-11.742325 8.099825 9.5241 2.0
-18.915779 8.938806 2.138411 1.0
-18.7418 6.80555 -1.287 1.0
-20.048901 12.02165 -33.037899 3.0
27.327572 13.462308 42.971962 2.0
-3.86405 11.5201 25.025848 2.0
-7.962012 13.089925 20.944088 2.0
-20.152433 11.081485 -27.272333 3.0
1.65356 17.28511 31.904739 2.0
-2.8903 12.726482 26.637335 2.0
-12.5803 5.40725 1.5726 2.0
-9.295725 4.8737 18.877476 2.0
-14.7385 -2.67125 -8.1034 0.0
-19.664499 9.70775 -39.832298 3.0
-13.701475 11.083075 7.66735 2.0
23.327316 12.297684 41.828152 2.0
-16.879499 -9.5145 -3.7516 0.0
-23.121931 4.494264 35.869556 1.0
15.74505 13.46785 38.3605 2.0
-25.476282 -10.447183 -3.101067 0.0
-2.76715 7.09315 28.77055 2.0
-17.489 4.485217 6.031433 1.0
9.275483 18.301567 36.318569 2.0
-19.725979 8.501509 16.672821 1.0
-18.7334 6.08115 1.51528 1.0
6.1745 9.87645 34.393799 2.0
-21.912342 -10.886236 -3.302357 0.0
-19.358299 11.84865 -26.701599 3.0
-16.7192 5.46625 1.7003 1.0
-20.745388 2.7245 22.287838 1.0
-19.66465 13.3013 -42.068298 3.0
-21.490057 -7.510407 -5.7137 0.0
25.24745 11.66135 43.037048 2.0
-28.157301 -1.58675 -6.3526 0.0
29.080585 13.49035 43.118687 2.0
-22.158159 -14.487631 -0.29884 0.0
-10.65372 10.71471 14.114641 2.0
-20.5009 9.91555 -12.5563 1.0
-25.47735 1.523967 -10.049834 0.0
-17.5096 -10.62055 -2.12165 0.0
26.486851 14.0694 42.366798 2.0
-19.0697 2.557483 15.326767 1.0
-18.698225 -10.968451 -2.16875 0.0
-19.517601 7.8836 -22.878775 0.0
7.89845 11.09492 35.326408 2.0
-21.709267 4.503783 26.285683 1.0
-18.901533 13.243716 -46.920532 3.0
-17.550201 10.109301 3.1086 1.0
-26.449656 -2.474079 -7.049914 0.0
-17.1206 9.917016 -16.116217 2.0
-17.769501 10.17615 -27.5193 3.0
-19.691141 13.30105 -45.345619 3.0
-19.378498 8.11218 -4.13324 1.0
-13.6775 11.86005 8.1823 2.0
-12.851067 9.487783 6.1148 2.0
-19.445051 7.9257 -11.0877 1.0
-19.7731 2.24055 19.244101 1.0
-20.450075 9.896275 -32.701351 3.0
-23.296175 4.44705 41.280701 1.0
-12.8035 8.85575 7.592 2.0
15.493917 8.914658 40.484673 2.0
-17.080599 5.1008 4.06755 1.0
7.538812 17.714062 35.316776 2.0
-24.455025 5.1192 -12.238501 0.0
9.471209 13.497095 35.494106 2.0
-11.317901 7.272725 9.864451 2.0
-2.503467 13.708651 27.25429 2.0
-19.071199 11.39565 -0.8631 2.0
-19.183599 9.52845 12.8126 1.0
-19.705194 10.559172 -9.689692 2.0
-20.604099 10.10945 -15.8224 1.0
-21.354357 3.08525 24.873287 1.0
-22.857 8.908717 -19.026667 0.0
-17.436501 11.260599 -19.782299 2.0
-21.698984 3.083417 26.530046 1.0
-19.266899 8.9332 -25.1451 0.0
-23.678583 0.4624 -10.126033 0.0
-11.0556 7.7334 12.146749 2.0
-18.988899 9.419249 19.524799 1.0
-22.669601 2.7048 30.620899 1.0
14.719119 7.45897 41.354 2.0
-17.182251 10.845449 -18.696751 2.0
-26.942415 -6.153983 -4.784817 0.0
-5.32995 6.84735 26.0336 2.0
-20.508772 -10.900378 -3.100643 0.0
-15.6539 7.48635 -22.020599 0.0
-19.677299 9.73865 -40.8214 3.0
-21.902578 5.886251 37.142601 1.0
-18.900925 11.337675 -22.167248 3.0
11.7513 18.14105 37.651096 2.0
-9.299199 16.154917 21.551767 2.0
-22.553719 3.897233 -13.131984 0.0
-17.698961 1.108489 -11.897171 0.0
-22.5166 4.56395 40.5345 1.0
0.0033 10.72035 29.1705 2.0
-23.49942 4.26591 40.283665 1.0
-14.672166 10.344951 2.7462 2.0
-24.308134 3.293584 41.521999 1.0
13.322901 14.700049 37.320229 2.0
-17.279076 8.733151 -14.335175 2.0
-11.8859 6.74525 7.01975 2.0
-20.585299 4.891693 16.931213 1.0
-14.482 1.26855 -12.6877 0.0
-16.220301 6.6866 -6.531925 2.0
-2.902734 11.30565 26.523666 2.0
-26.95426 -0.716206 -7.723833 0.0
-19.55374 8.71985 12.284559 1.0
-17.243134 3.532117 9.4455 1.0
2.54046 8.67605 33.079781 2.0
-2.2009 11.15675 27.4284 2.0
-18.310499 -0.60955 -10.4786 0.0
-18.445049 9.33285 -23.36595 0.0
-21.661787 1.328977 -12.069906 0.0
-16.379799 9.6678 -10.35085 2.0
-20.23785 5.97015 8.5332 1.0
5.1154 15.3035 33.527802 2.0
-22.271929 5.134636 -14.478943 0.0
-27.028498 2.29175 46.658367 1.0
-11.0116 14.52265 18.223999 2.0
-19.4527 8.01535 1.8685 1.0
-9.090282 11.512867 18.098667 2.0
13.1971 7.63615 40.8848 2.0
24.528454 12.89415 42.107647 2.0
-21.196301 9.24095 -21.144199 0.0
2.501664 15.495722 31.893156 2.0
21.249374 15.0903 40.953598 2.0
19.086075 8.50115 42.292351 2.0
-19.323481 10.11289 -41.481621 3.0
-19.44911 9.091283 -15.703256 1.0
18.253202 14.517083 39.695782 2.0
12.097876 8.36465 39.148624 2.0
-22.335968 4.71045 30.526184 1.0
-19.239599 7.05695 -0.0082 1.0
-21.714926 4.32575 24.909275 1.0
-20.352779 4.46421 16.305841 1.0
-23.569424 6.065775 -13.763075 0.0
-12.51576 5.74983 2.47154 2.0
-25.524458 -7.493578 -4.887528 0.0
-16.510633 8.338516 -22.466133 0.0
-16.909637 10.6339 -3.324762 2.0
-29.866699 -10.70385 0.2787 0.0
-20.100677 7.721128 20.295845 1.0
-21.582399 5.77695 27.603901 1.0
24.07436 13.706709 41.85656 2.0
-18.487425 10.15105 -4.0961 2.0
-15.5065 12.667251 6.515475 2.0
-20.705601 -0.3943 -10.7213 0.0
-12.0596 10.34475 10.4045 2.0
-19.279182 2.100314 17.910845 1.0
16.899921 10.09717 40.289581 2.0
-7.352 10.51775 19.846384 2.0
-19.4758 13.24655 -39.224201 3.0
13.0851 7.2501 40.232399 2.0
-22.298471 5.715893 32.076145 1.0
-16.459932 5.280817 -18.925367 0.0
21.176674 12.263275 41.080898 2.0
-20.059366 -11.315617 -2.3239 0.0
-27.550301 1.63795 48.744598 1.0
-20.175034 5.873183 11.679967 1.0
-3.78385 9.900249 25.562099 2.0
7.3508 9.07325 36.228298 2.0
-19.289499 13.19985 -41.368301 3.0
-6.4381 4.49625 25.434299 2.0
-24.135317 3.739533 42.07933 1.0
-5.1737 10.09005 24.1493 2.0
-9.6851 9.674649 15.1269 2.0
-27.272902 -14.846817 0.957133 0.0
-2.2071 12.49295 27.232651 2.0
-11.1406 6.3054 9.03175 2.0
-9.5368 12.672668 18.351633 2.0
-17.331749 6.1453 -0.24225 1.0
-16.295866 -0.113583 -10.359567 0.0
-22.051928 3.304536 27.718431 1.0
-24.48329 -13.111328 -1.324867 0.0
20.040201 12.344949 40.5494 2.0
-21.248051 2.12195 25.67775 1.0
-19.909201 5.02285 -17.130068 0.0
-9.5721 5.64135 17.8183 2.0
-22.535467 4.468117 -13.557767 0.0
-5.34705 9.31365 23.72365 2.0
-17.50034 2.54149 12.88002 1.0
-26.527174 -8.852051 -3.63405 0.0
-26.901089 0.269546 -8.363483 0.0
-20.465401 3.7045 18.081984 1.0
-17.143633 10.526817 3.452767 1.0
-19.880199 10.80665 -22.463301 3.0
-26.584101 1.44305 46.115799 1.0
-17.497299 7.05115 -20.342751 0.0
-24.320032 0.296567 38.511539 1.0
12.900533 15.91425 37.311733 2.0
-23.42025 1.1308 34.260002 1.0
-15.902519 10.36005 -4.5408 2.0
-18.78215 10.17745 -6.86975 2.0
-19.7027 -0.29639 -10.93532 0.0
-18.713385 8.516083 -23.499132 0.0
-16.131735 -3.041 -8.0255 0.0
-20.0802 9.58265 -18.239401 1.0
-20.061226 8.100263 -22.681425 0.0
4.121667 11.912384 32.754333 2.0
-10.917572 12.472936 15.925515 2.0
-9.852067 5.10815 14.103 2.0
-20.510899 0.326328 -11.473611 0.0
4.844433 14.50415 33.103367 2.0
-19.89683 3.31585 16.067928 1.0
7.936025 10.094851 35.865051 2.0
-21.978849 5.7549 30.1805 1.0
-16.160299 5.6679 -19.711151 0.0
10.703199 9.26437 37.848656 2.0
-19.494801 9.75365 -33.134029 3.0
2.236 13.697949 31.343534 2.0
-15.959567 7.113267 -5.899817 2.0
-19.489651 5.37305 -18.24185 0.0
-18.672001 10.75715 9.7084 1.0
-19.268633 8.70825 1.116 1.0
-20.467051 13.273625 -43.106125 3.0
-26.526165 -15.142317 0.643211 0.0
-21.190599 6.56645 26.6122 1.0
-22.662756 1.518628 31.511055 1.0
-20.4044 12.71705 -39.495998 3.0
-19.424917 9.299649 -9.90165 1.0
19.255716 16.317499 40.288933 2.0
-21.1446 10.6214 -35.698502 3.0
13.282885 8.889964 39.346489 2.0
-19.107849 2.3725 -13.61685 0.0
-11.25845 7.88395 11.52725 2.0
7.502817 16.093267 34.901417 2.0
-25.2894 3.08055 42.299702 1.0
-18.119165 10.993251 -13.589168 2.0
-19.343302 8.90607 -5.2238 1.0
-11.43955 8.884399 11.94035 2.0
-19.391867 9.07485 -18.4625 1.0
-20.353149 2.0618 22.110249 1.0
-19.104532 10.959683 -45.702198 3.0
-18.319025 10.8555 -9.69215 2.0
18.129999 18.083151 40.413399 2.0
-11.305059 5.34279 4.6934 2.0
-20.320675 8.3047 26.128851 1.0
-9.889074 4.511475 12.4988 2.0
-14.688801 14.2767 11.4984 2.0
-18.670099 7.62135 -21.660299 0.0
-19.38475 8.709 -7.68635 1.0
-4.4125 8.53375 25.924999 2.0
-15.3017 10.16435 -5.2224 2.0
-5.7746 4.50665 26.4496 2.0
-19.277266 9.897517 -38.553631 3.0
-16.715767 10.682183 -9.914967 2.0
-23.937733 5.243428 -12.708233 0.0
6.4149 10.98025 34.066502 2.0
-17.1915 -10.13095 -2.5773 0.0
-17.580851 10.5453 -21.174 3.0
-17.830067 -1.9466 -9.347817 0.0
-9.927314 14.708322 19.511614 2.0
-21.72121 6.707934 29.715435 1.0
-18.080341 11.531031 -26.656281 3.0
-13.10034 5.87257 1.30418 2.0
-22.032333 -0.110817 32.7178 1.0
-21.717949 6.158375 35.8722 1.0
-19.876795 4.70299 12.304367 1.0
-18.2491 12.07265 -38.2719 3.0
-14.9403 0.11245 -10.6222 0.0
-20.610401 9.957601 -30.647699 3.0
-14.62591 9.07844 -0.74285 2.0
-15.24285 -1.653 -9.06005 0.0
-27.773689 -9.95255 -2.161356 0.0
-18.736 1.13775 19.6875 1.0
-14.359 10.01835 -0.0603 2.0
-15.3181 2.08685 -12.921125 0.0
2.985933 10.65995 32.413132 2.0
-3.342575 13.69085 26.374975 2.0
-19.9058 11.76973 -30.93688 3.0
-0.683367 9.9038 29.502752 2.0
-18.6446 10.2324 -32.658852 3.0
-20.893143 5.305205 20.83499 1.0
-19.0453 9.25365 20.8419 1.0
-15.4112 9.283649 -4.53405 2.0
-13.08685 14.9493 16.535549 2.0
-28.877451 -9.2281 -1.677025 0.0
11.702872 16.502522 36.891388 2.0
-22.351799 5.3403 35.863251 1.0
-13.722012 10.094517 3.323267 2.0
-21.67309 4.11715 -14.270111 0.0
-16.9072 -5.85865 -6.0731 0.0
-9.964972 6.920107 15.132514 2.0
-24.940802 -2.117417 -7.961 0.0
-11.12235 13.256516 16.54015 2.0
-14.447666 7.910567 0.08 2.0
-4.315847 14.690709 25.56324 2.0
-1.512929 13.490264 28.090088 2.0
-24.691866 0.147533 -9.51575 0.0
-17.284679 11.32341 0.31568 2.0
-19.48085 3.7385 -15.618999 0.0
-19.135532 12.455617 -37.93 3.0
-16.6117 -8.92355 -4.2393 0.0
-14.6104 8.75605 1.0688 2.0
-27.711599 -11.566783 -0.9753 0.0
-19.49412 9.49999 -14.940039 1.0
-23.023033 3.153817 -12.268333 0.0
-21.487825 4.916025 25.09915 1.0
-24.555449 1.913333 38.109699 1.0
-18.3783 11.114201 -34.848499 3.0
-17.547379 10.525591 6.15412 1.0
-12.0502 11.332951 11.92915 2.0
-21.073999 4.496267 21.466803 1.0
-19.491163 11.905425 -29.902239 3.0
-19.8274 13.26415 -48.590401 3.0
-16.120899 9.04195 -23.4007 0.0
-27.4832 2.44575 48.8382 1.0
-23.133902 1.259083 -10.9459 0.0
-20.51115 5.493975 -17.692699 0.0
-20.658533 12.124017 -43.705814 3.0
-21.886198 -0.922483 -10.340222 0.0
-18.070545 -5.550194 -6.520989 0.0
21.315916 13.506422 40.929035 2.0
-19.979599 9.046 -28.077374 3.0
-21.731926 6.104163 28.828339 1.0
4.90774 7.89491 35.455158 2.0
-8.1222 7.32615 21.514549 2.0
-19.326401 6.7482 -0.95515 1.0
-22.241999 6.289583 33.287434 1.0
7.323329 16.676022 34.939087 2.0
-16.295 2.75375 12.83865 1.0
17.720371 16.515463 39.709587 2.0
-20.857986 9.329281 -22.123106 0.0
-23.406601 4.18925 -12.6018 0.0
-21.0543 12.665751 -44.718147 3.0
-28.534826 -7.5513 -2.92695 0.0
-18.052799 4.91705 4.1101 1.0
0.6682 7.16525 32.057301 2.0
-14.9826 2.42735 -13.7346 0.0
-9.6802 12.283762 17.912745 2.0
-20.965199 6.95295 26.181999 1.0
-14.0194 14.51715 14.738 2.0
-4.867 7.459883 26.252533 2.0
-15.853081 4.08613 -17.471241 0.0
-15.36204 3.96417 9.93028 1.0
-17.502449 -7.5504 -4.9461 0.0
-26.24715 1.66585 43.126152 1.0
-3.928167 10.310284 25.141031 2.0
-21.933699 5.491689 28.698256 1.0
-3.868 15.66325 26.262199 2.0
-19.4928 6.54335 -20.306252 0.0
-19.369368 8.110316 -2.191133 1.0
-11.8061 4.79475 2.5915 2.0
-20.355801 0.00825 29.2017 1.0
-14.312833 10.86625 5.5136 2.0
-9.5694 4.09735 16.8927 2.0
-24.445799 3.05117 38.896751 1.0
-15.428699 7.51305 -3.6191 2.0
-18.382025 9.964624 7.6935 1.0
-24.898901 3.324616 43.119644 1.0
-16.494368 3.648517 -15.360199 0.0
-17.715799 11.648816 0.641767 2.0
-19.282 9.677183 16.577667 1.0
-23.7239 -9.966016 -3.770533 0.0
-27.109501 -17.110161 1.922578 0.0
-21.098944 -14.505717 0.121275 0.0
-12.499878 13.697605 15.121633 2.0
-10.4831 9.13165 14.6751 2.0
-19.9683 10.61225 -48.881302 3.0
-0.7669 15.21465 29.398001 2.0
13.036 13.698684 37.151669 2.0
-23.540501 -7.32695 -5.5828 0.0
-21.881355 5.300427 28.08379 1.0
-17.953165 9.88515 -22.130632 3.0
-15.6125 -3.83455 -7.4072 0.0
-19.673599 7.60145 3.2497 1.0
-16.895901 -0.18255 -10.3208 0.0
-20.541801 9.91445 -28.544102 3.0
-9.7115 6.18845 16.7094 2.0
-5.087475 6.297766 26.711334 2.0
-24.707926 2.7128 40.519123 1.0
-19.682751 -12.9669 -0.7511 0.0
-4.07685 9.2929 25.3456 2.0
1.5123 13.892949 30.854898 2.0
-27.063814 -9.31095 -3.049843 0.0
-24.633333 1.31965 38.058167 1.0
21.196899 9.64505 42.802399 2.0
-19.688801 13.292 -46.208 3.0
-18.0842 5.74755 0.4433 1.0
-21.107735 -0.10225 31.954765 1.0
-16.357599 1.69725 14.0176 1.0
-20.556662 5.507 16.875925 1.0
-21.8076 7.24945 33.5994 1.0
-18.920532 0.882483 -11.885367 0.0
-21.515301 7.44165 32.3937 1.0
-20.449499 10.88765 -25.2644 3.0
-18.9589 10.969074 -14.038324 2.0
-23.499649 3.083113 -11.875251 0.0
-10.125401 4.72565 10.464 2.0
-18.664101 8.53425 -19.6408 3.0
-17.0226 10.59605 -5.1495 2.0
-18.494556 11.223292 -19.086657 3.0
-18.700672 11.150779 -17.923887 1.0
-17.178101 9.56765 -15.1628 2.0
-18.31356 4.12069 8.9098 1.0
-18.093361 5.25249 -17.50614 0.0
5.314133 18.49795 34.479168 2.0
-22.590801 4.50795 31.739 1.0
1.098337 11.901813 30.304474 2.0
-11.90375 10.6545 10.965151 2.0
-2.3921 16.42585 28.742001 2.0
-2.5613 11.93555 26.3368 2.0
-27.350302 1.557717 48.016102 1.0
-20.467516 5.3532 13.31765 1.0
-17.5397 3.23725 -14.5598 0.0
6.325737 10.469675 34.699375 2.0
-22.95138 4.48655 35.295601 1.0
-20.262899 11.04515 -26.437401 3.0
-20.134449 9.5077 -29.086 3.0
-26.598 -12.07535 -1.1829 0.0
-20.265066 9.290183 -24.051931 0.0
18.065729 8.746365 41.577129 2.0
1.6426 9.45215 31.3897 2.0
-13.6936 9.63295 4.8068 2.0
15.03495 15.1466 38.227448 2.0
11.172649 12.523251 36.620102 2.0
11.868879 7.45663 39.869183 2.0
-24.877581 -9.878771 -3.73498 0.0
-7.877354 9.103658 19.874485 2.0
-19.702351 9.903825 -35.304123 3.0
11.755729 9.649207 38.068272 2.0
-19.307526 4.94895 -17.077549 0.0
-23.695135 -15.664433 0.3546 0.0
-11.069 8.27095 12.6265 2.0
-27.877138 -2.27465 -6.2645 0.0
-17.991301 10.67095 8.7056 1.0
-23.0923 0.73341 -10.66474 0.0
15.9378 9.63175 40.220402 2.0
-5.6577 8.28835 24.415899 2.0
-19.503174 10.666775 -7.454775 2.0
-18.869175 -0.938425 -10.26465 0.0
-19.342516 4.073817 11.702283 1.0
-19.676701 9.91965 -42.453098 3.0
-23.105251 4.31085 37.878502 1.0
-11.30215 9.875 10.60855 2.0
-18.338467 0.64465 20.681801 1.0
-20.578199 10.25585 -36.606998 3.0
-21.2265 7.95485 -19.621332 0.0
-22.5354 6.70753 -16.102741 0.0
-11.262751 12.320299 15.137074 2.0
-20.299673 -13.694951 -0.339957 0.0
-18.121662 9.887631 2.099 1.0
-19.728399 7.02 -21.175449 0.0
-19.069099 10.4523 -39.122025 3.0
-19.1805 9.54125 -6.708 1.0
-9.078275 6.6941 18.517799 2.0
-19.491533 -0.841283 -10.420067 0.0
-15.741834 2.719816 -14.047933 0.0
-8.692566 8.287318 18.615601 2.0
-19.082926 5.3566 -17.710125 0.0
-7.8822 4.90365 23.498726 2.0
-22.7428 4.74985 36.9244 1.0
-20.719584 1.082983 26.722397 1.0
-19.682261 1.14377 22.516819 1.0
-18.1504 11.74267 -45.071041 3.0
-8.3176 16.27705 21.9023 2.0
-0.8206 12.513883 28.0996 2.0
-17.1066 10.479799 4.10835 1.0
-6.6521 11.287275 21.885351 2.0
-21.3118 -1.91785 -9.45195 0.0
-4.71025 15.48785 25.1719 2.0
-2.081475 10.2798 27.341349 2.0
-26.977551 -3.33965 -6.1599 0.0
-15.923091 12.52055 5.480945 2.0
-19.894234 10.526867 -13.103499 2.0
-20.896374 5.494325 20.1406 1.0
-19.313635 8.100659 1.285782 1.0
-25.055733 2.283517 -10.644567 0.0
-20.041649 10.7047 -23.68405 3.0
-17.328917 10.49405 -19.357649 2.0
-24.4233 0.75695 -10.0476 0.0
-25.0842 -15.35805 0.226033 0.0
-26.0072 -5.20265 -5.815 0.0
5.8934 10.97835 33.778999 2.0
-19.747782 2.86316 17.094852 1.0
12.07292 12.720549 36.948502 2.0
-29.2169 -6.56955 -3.0373 0.0
27.92485 13.0986 42.732048 2.0
-14.512225 11.2941 5.897224 2.0
-23.954174 2.250725 -11.155701 0.0
-23.93008 1.70392 35.888847 1.0
-19.714575 10.895164 -46.493538 3.0
-24.13129 -6.702149 -5.904439 0.0
-21.258499 0.6897 -12.0899 0.0
-18.895201 0.5458 22.87615 1.0
-8.1389 9.96435 18.5728 2.0
-17.0627 11.921216 2.448167 2.0
-20.486465 12.895317 -48.521 3.0
14.5391 10.21935 39.2099 2.0
-19.511984 9.303766 -19.484566 3.0
-17.865202 10.118283 -23.1127 3.0
-19.458662 9.10715 -12.066738 1.0
-20.510025 12.3001 -49.674599 3.0
22.333 10.2637 42.8951 2.0
-24.287733 3.689617 44.642536 1.0
-22.104916 1.111114 -11.519972 0.0
-19.181299 8.54975 -16.909401 1.0
-17.879917 10.927517 -12.290717 2.0
-15.9326 6.512536 -5.300815 2.0
-19.981001 9.05145 -30.0518 3.0
-22.3888 4.94045 38.567001 1.0
-3.32095 12.4917 26.116201 2.0
-19.7321 9.01715 -33.883499 3.0
-15.1506 4.91425 -3.2932 2.0
12.30362 10.710091 37.863335 2.0
-17.033899 -2.53655 -8.5799 0.0
8.681396 17.901205 35.911076 2.0
-17.2195 1.79455 -12.6012 0.0
-25.297033 0.884361 -9.732778 0.0
-20.481535 11.899283 -39.120968 3.0
-10.5472 5.03985 7.5019 2.0
-26.919201 1.6433 47.082397 1.0
-19.389149 7.54485 -0.32545 1.0
-22.872286 6.117349 -14.877273 0.0
-18.5035 11.59115 -0.152 2.0
-6.285486 14.130121 23.318859 2.0
-14.20435 4.9347 -1.5569 2.0
-19.255424 8.7021 -3.293325 1.0
-19.086498 8.89399 -0.55852 1.0
-16.1621 11.68515 2.9672 2.0
8.642266 9.11865 36.75967 2.0
-19.47105 9.582149 -30.308451 3.0
-17.069151 0.48105 -11.1375 0.0
27.6168 15.85025 42.764198 2.0
17.13554 17.53101 39.859081 2.0
-19.4669 10.353951 -47.272148 3.0
-20.680119 10.89201 -43.49826 3.0
-21.693451 -9.307051 -4.40345 0.0
-16.8487 3.18285 8.6039 1.0
-25.499477 0.65941 42.104401 1.0
8.7589 12.681524 35.417751 2.0
17.313532 11.15845 39.767498 2.0
-20.4634 3.9742 -15.6082 0.0
-20.104565 6.514906 -20.104513 0.0
13.0254 9.45075 39.014198 2.0
-23.29685 -8.09981 -5.29244 0.0
-0.4343 11.55245 28.431601 2.0
-20.2743 9.49645 -26.319468 0.0
2.29724 12.888501 31.314032 2.0
-18.288799 4.42865 6.9217 1.0
4.3706 10.267425 33.626472 2.0
-18.926666 9.500333 -31.0886 3.0
-17.7194 7.98515 -15.0043 2.0
-24.502825 -11.357525 -2.542037 0.0
14.71935 11.2186 38.685852 2.0
-22.699364 -5.309275 -7.280075 0.0
-22.126537 5.114825 29.283136 1.0
-21.024099 10.66165 -37.5257 3.0
-19.414167 9.631683 17.242867 1.0
-18.09156 10.70403 -6.14864 2.0
-22.166874 4.65915 -14.146026 0.0
-29.457199 -7.83735 -2.0043 0.0
-8.280399 9.30115 18.9727 2.0
-18.963301 9.7183 11.241449 1.0
-16.9217 4.62545 5.7323 1.0
-15.3228 -2.26125 -8.6093 0.0
-17.796301 12.09315 -50.421036 3.0
-21.7932 5.18495 38.094601 1.0
26.315161 15.10363 42.922382 2.0
-19.718901 8.323049 24.886999 1.0
-18.510567 9.911651 8.935567 1.0
-6.0945 5.05725 26.407499 2.0
-7.44725 11.11495 20.83375 2.0
-21.132633 0.700628 28.707401 1.0
-21.2087 7.66485 27.5669 1.0
-17.0881 3.42615 10.091351 1.0
-18.9266 13.40735 -48.8848 3.0
-18.537167 11.259816 -47.934799 3.0
-1.1627 7.87525 30.4163 2.0
-20.0837 10.54505 -47.367699 3.0
-18.485798 9.510908 5.678986 1.0
-18.545166 11.690483 -37.26627 3.0
-22.065956 2.125783 -12.277689 0.0
5.7345 16.294649 34.108067 2.0
-21.667528 6.106679 -16.472172 0.0
-14.296733 10.357984 3.887633 2.0
-18.895399 11.67815 -24.732201 3.0
-8.11935 8.47785 20.63295 2.0
-19.509501 5.73375 -18.8515 0.0
-21.342201 8.10305 29.325624 1.0
0.90645 10.87805 29.94775 2.0
-19.343985 8.079636 0.1064 1.0
-23.178749 5.6192 -13.786449 0.0
-17.121149 3.08435 11.485725 1.0
-20.8524 10.24885 -29.5249 3.0
-12.6737 14.39585 16.0312 2.0
4.105389 14.084117 32.71199 2.0
-0.1793 16.088249 30.160351 2.0
-28.711433 -15.281418 2.486633 0.0
-19.621 8.92175 -29.523899 3.0
-17.3262 5.62085 -9.2028 2.0
-20.306023 10.51795 -8.8755 2.0
-17.694313 10.8267 -2.886862 2.0
-20.877001 5.331075 -16.677849 0.0
-17.743401 9.94905 -25.821199 3.0
-19.318451 12.45565 -34.65535 3.0
-16.081633 -1.524004 -9.150816 0.0
-12.735399 10.1094 8.092951 2.0
1.567 7.11955 33.581799 2.0
-16.9093 11.01915 4.6489 1.0
-20.160999 -0.50555 28.6709 1.0
-23.483089 2.519461 -11.510079 0.0
-6.10975 10.685499 21.877701 2.0
-21.221201 11.70485 -45.851299 3.0
-9.517125 8.721175 16.309475 2.0
-18.487801 1.30879 18.544361 1.0
-8.1953 13.25655 20.3944 2.0
-18.097275 -1.506975 -9.7198 0.0
-5.6761 14.49475 24.077751 2.0
12.65292 17.92359 38.0672 2.0
-20.61655 10.78255 -27.470551 3.0
21.692801 11.470488 41.496799 2.0
-19.369766 0.514917 -11.691033 0.0
-17.688377 11.135 -25.937824 3.0
0.111475 8.081651 31.50845 2.0
-15.083661 10.45753 1.92702 2.0
-21.0854 5.502216 21.8557 1.0
-23.192101 4.26495 42.480202 1.0
-3.480333 8.681366 26.907919 2.0
-19.422424 7.7088 0.864475 1.0
-9.533367 9.301483 15.9753 2.0
-13.1265 13.053474 12.36025 2.0
-20.585051 11.5015 -44.598049 3.0
-21.525761 0.27707 30.650761 1.0
-19.152 10.311199 -40.8909 3.0
15.895843 10.3045 39.725262 2.0
-0.0235 11.0723 29.660351 2.0
0.107362 14.69005 29.907539 2.0
-3.261634 11.711349 25.6502 2.0
-19.45739 9.107977 -10.874955 1.0
-23.189449 0.65275 34.643547 1.0
-21.324886 4.504836 23.510614 1.0
-20.277975 10.819849 -5.879575 2.0
-8.1805 6.68165 21.413 2.0
-13.6929 11.91595 9.5219 2.0
-14.2545 9.84495 2.6478 2.0
20.697268 10.914017 41.17857 2.0
-21.093866 3.902766 22.295866 1.0
-7.366 12.31605 20.973801 2.0
-2.91974 13.30421 26.718861 2.0
-27.725016 -6.1257 -4.3242 0.0
-25.479879 -5.25111 -6.06134 0.0
-15.887143 3.55585 -15.669144 0.0
-16.12455 -5.50495 -6.3227 0.0
-21.0142 2.77395 23.047701 1.0
-17.496281 11.737431 1.48344 2.0
-6.6765 10.30639 21.07708 2.0
-13.267499 13.387116 13.059834 2.0
22.520834 13.111882 41.351452 2.0
-18.402599 6.18365 -0.485 1.0
-11.7888 11.87615 12.6306 2.0
-7.0602 4.95685 25.1236 2.0
-2.0725 7.521917 28.9695 2.0
-19.470982 9.288489 14.704059 1.0
-7.682718 15.118786 22.0893 2.0
-20.3619 11.9258 -37.072899 3.0
-1.2084 16.933601 30.053749 2.0
-0.9795 11.66485 27.8657 2.0
8.44135 7.672638 37.892616 2.0
-25.518551 -16.176498 1.0053 0.0
-16.8897 2.252517 13.679183 1.0
-11.3743 10.87635 12.4324 2.0
-21.874802 2.302067 28.114075 1.0
-18.115067 11.506017 -24.051498 3.0
-21.5886 2.80785 -13.1993 0.0
-23.420551 3.4954 33.922199 1.0
-8.2914 12.6831 19.899601 2.0
2.165233 9.259851 32.4174 2.0
14.35132 14.94693 37.831177 2.0
-19.504932 -8.47585 -4.538933 0.0
3.2666 9.25935 32.866001 2.0
-6.541784 12.29395 22.351435 2.0
18.845419 17.484371 40.329502 2.0
4.70486 6.48024 36.078423 2.0
-18.506401 11.095272 -15.925344 2.0
-14.954531 9.6918 -2.70438 2.0
-16.518024 4.3227 6.909225 1.0
-17.955275 12.646976 2.366925 2.0
-19.731934 3.240983 -14.742367 0.0
8.299565 16.916216 35.478832 2.0
11.675257 13.69635 36.543587 2.0
25.359589 15.275526 42.311768 2.0
-11.921856 12.279328 13.5165 2.0
-16.5539 10.073517 -11.951533 2.0
-15.1015 0.88265 -11.3254 0.0
-22.721399 8.08815 -18.3379 0.0
-7.5067 10.5122 20.665474 2.0
9.104462 11.301921 35.945587 2.0
-19.719875 -2.771225 -8.959976 0.0
-0.04054 14.14879 29.634079 2.0
-17.554468 10.693616 -7.5945 2.0
-21.09535 2.7363 -13.898675 0.0
-22.953251 4.833625 -13.380475 0.0
-7.3532 13.45505 21.528751 2.0
-16.700649 10.874599 3.31095 2.0
-26.106792 -3.32519 -6.74989 0.0
-10.84525 15.1777 19.050701 2.0
-16.885834 3.092217 -14.317833 0.0
-7.809067 11.910216 20.650299 2.0
-20.217649 7.38475 -21.0585 0.0
2.32686 6.28695 34.46468 2.0
-28.436852 -16.089468 2.349633 0.0
-20.122833 10.337216 -14.33335 1.0
-22.7377 0.892436 32.719299 1.0
-6.4203 15.17565 23.4536 2.0
25.163799 13.26585 42.4147 2.0
-25.3167 0.71475 41.117298 1.0
-23.932791 -3.726506 -7.555967 0.0
-18.866699 10.49987 11.315 1.0
-12.978476 5.09725 0.490325 2.0
-14.705801 10.065789 -0.916193 2.0
-19.144749 9.96135 -34.366699 3.0
-25.009899 3.16215 44.237999 1.0
6.9725 6.69315 37.878601 2.0
0.98574 12.91657 30.256739 2.0
-15.8579 10.36755 -8.647 2.0
-15.5215 2.55415 12.86055 1.0
-25.205601 -0.60805 -8.839 0.0
-18.891251 8.491699 -20.8556 0.0
-26.7439 -7.1481 -4.39025 0.0
11.2942 10.933089 37.136078 2.0
-5.694828 16.340036 25.089157 2.0
-24.454639 3.07337 39.483196 1.0
-6.65925 8.03675 22.469799 2.0
-0.286389 9.114583 30.291656 2.0
-18.708851 9.505 0.31025 1.0
-14.7344 7.0849 -1.61625 2.0
-8.943049 5.299266 19.871801 2.0
-1.49125 10.88025 28.26465 2.0
-6.9623 6.39525 23.368299 2.0
-11.6714 15.43185 18.6392 2.0
-19.8365 8.933599 -28.92255 3.0
-18.677887 12.117736 -33.63187 3.0
7.1427 10.46301 35.238857 2.0
-1.30274 7.11373 30.354198 2.0
-8.4407 8.29825 19.7348 2.0
-10.24065 6.3768 14.343849 2.0
-19.147051 13.2836 -44.498947 3.0
13.923093 8.48565 40.106236 2.0
-20.122299 10.70815 -48.332699 3.0
-17.883049 6.49815 -1.71865 1.0
-20.6145 4.52355 17.3771 1.0
-16.90485 9.9091 -14.1585 2.0
13.46595 9.76565 38.767448 2.0
-19.084949 10.683025 13.363924 1.0
-16.452499 3.7132 9.56185 1.0
-19.484344 1.922283 -13.116199 0.0
10.6607 12.110701 36.362801 2.0
-19.678299 11.9263 -32.044197 3.0
-18.096825 9.827226 3.90515 1.0
-19.229099 12.67275 -35.3419 3.0
-23.411301 3.95905 36.025299 1.0
-18.314419 13.11279 -47.8689 3.0
-17.130299 -3.284175 -8.064424 0.0
24.519421 12.2803 42.287739 2.0
-10.107462 13.289012 18.115211 2.0
-6.676533 5.094 24.694334 2.0
-3.024 6.47135 29.225201 2.0
-28.6271 -14.888 1.9917 0.0
-21.3125 10.70085 -21.5539 0.0
-18.50345 10.046 -2.706175 1.0
-26.244801 -11.43445 -2.0121 0.0
-16.135637 -4.079841 -7.261272 0.0
-8.914654 6.094323 19.525881 2.0
-24.059565 0.335583 39.560436 1.0
-26.71698 -10.30419 -2.53576 0.0
-17.50865 5.8826 0.785 1.0
-23.652634 -12.834984 -1.868667 0.0
-18.0781 4.63475 5.2304 1.0
-19.446449 -10.5385 -2.77035 0.0
-22.296265 -8.215484 -5.304333 0.0
-19.668245 8.704107 18.89773 1.0
-15.712225 6.886475 -21.071701 0.0
-18.544401 10.317017 -5.907333 2.0
-19.584101 7.503883 4.3895 1.0
5.326514 14.090795 33.455585 2.0
-15.8261 6.70265 0.9021 1.0
-5.3605 17.00515 26.023701 2.0
-25.08922 -5.905419 -5.89952 0.0
-20.864 10.33075 -28.775101 3.0
-24.303791 -8.312068 -4.953537 0.0
-19.5802 8.77335 15.0242 1.0
-21.1208 4.86655 -15.5875 0.0
-20.463316 1.127783 25.492731 1.0
-2.08455 10.6887 26.908649 2.0
16.51 12.035801 39.220901 2.0
-20.915033 3.879083 21.113333 1.0
-24.521599 -12.071175 -2.080217 0.0
-18.738899 7.69105 -16.9631 2.0
-9.2371 10.23955 17.284201 2.0
-15.389 11.83105 4.5423 2.0
17.911858 10.695695 40.309422 2.0
-21.9695 -0.62985 33.425301 1.0
-4.093475 5.917175 28.33765 2.0
-21.162901 12.17725 -45.114201 3.0
-20.514366 7.325483 24.691866 1.0
-18.499517 11.680617 -27.56175 3.0
-20.631023 10.899576 -35.46545 3.0
-12.833866 9.11615 6.589333 2.0
-19.871799 10.28215 -40.521698 3.0
16.746599 12.93095 38.9501 2.0
-5.8722 12.52245 22.85145 2.0
-21.148199 -13.60335 -1.2887 0.0
-18.305801 3.112125 11.2892 1.0
-15.18 4.74685 7.7432 1.0
-18.6724 8.48755 -16.4832 2.0
-11.502026 9.697525 10.10155 2.0
-20.486881 5.095405 15.320318 1.0
-15.5924 3.94245 -18.717899 0.0
-19.128633 0.937117 21.685633 1.0
-2.09 9.25575 27.7995 2.0
-20.144133 7.303483 16.376032 1.0
-10.7798 9.49805 13.717 2.0
-15.263875 8.30325 -2.91335 2.0
-18.914951 2.8985 14.129576 1.0
-18.711399 8.77515 -24.087 0.0
-16.475134 9.497383 -24.056467 0.0
-18.648701 5.32685 4.8456 1.0
-16.199699 5.35115 4.0343 1.0
-21.105801 11.66295 -46.998001 3.0
-22.716944 -14.458673 -0.647789 0.0
-18.5399 13.33865 -46.139397 3.0
24.894642 14.271319 42.112476 2.0
-15.9397 4.14745 7.906625 1.0
-19.1751 9.16485 -32.520199 3.0
-23.514658 -16.256052 1.114986 0.0
-17.525799 7.70365 -21.33005 0.0
-29.267 -12.64695 1.8041 0.0
-22.275799 2.13845 29.41865 1.0
-8.7912 9.12975 17.9027 2.0
-28.283731 -4.675007 -4.663543 0.0
-16.083467 4.863483 6.119067 1.0
-9.9882 9.92975 14.0939 2.0
-20.8253 10.31645 -26.0784 0.0
-28.948252 -13.337251 1.61275 0.0
17.675249 17.536699 40.044724 2.0
-21.56082 3.66291 -13.943359 0.0
-15.149501 3.15875 -15.704133 0.0
-9.7739 5.48325 15.11595 2.0
-17.914665 11.141683 -16.873089 2.0
-18.715979 10.840528 -10.101733 2.0
3.330521 12.707686 32.111843 2.0
-14.849539 12.52725 7.537 2.0
-17.2148 3.62165 8.5907 1.0
-13.625 7.0697 1.93815 2.0
4.7983 15.7763 33.493 2.0
-15.1371 8.2696 -1.345 2.0
-22.100222 8.113962 -18.905043 0.0
-10.4824 9.5447 14.25885 2.0
-4.2302 13.76935 25.6077 2.0
-2.96275 15.088825 27.333899 2.0
27.059034 14.900383 42.5285 2.0
-24.479628 -16.10095 0.716557 0.0
-4.30045 10.5398 24.38805 2.0
-12.0835 7.91235 8.5014 2.0
-6.941371 6.884264 23.659502 2.0
-17.17605 11.00695 -0.91745 2.0
-18.903645 9.093051 1.505856 1.0
0.5395 8.547501 30.8932 2.0
-16.641537 5.890443 -7.307393 2.0
-3.3084 6.73085 28.128601 2.0
2.674633 7.680983 33.453632 2.0
-19.906626 11.725974 -30.319925 3.0
-25.473715 -13.462166 -0.839883 0.0
3.03075 16.2764 32.542286 2.0
-20.3547 0.03815 30.4788 1.0
0.882325 15.106226 30.663626 2.0
0.1381 11.8877 29.05225 2.0
-1.3128 6.29005 30.70405 2.0
-4.263 10.874189 25.273357 2.0
-18.285267 10.940583 -11.8274 2.0
-16.781151 9.32465 -12.409901 2.0
-17.852365 9.873883 -21.371134 3.0
-13.280223 14.546049 15.445112 2.0
-22.507225 7.693875 -17.90555 0.0
-12.471849 15.1485 17.65715 2.0
-14.4738 9.67435 1.4857 2.0
-14.0869 11.41005 8.0785 2.0
-6.357033 5.708483 24.7658 2.0
-22.515701 2.291317 -11.973367 0.0
-17.7528 11.2908 -24.609901 3.0
-21.899374 3.734975 26.785925 1.0
-7.888875 10.328225 20.0714 2.0
11.084111 8.545395 38.491165 2.0
-16.0641 6.01925 2.5688 1.0
-19.425501 8.32435 4.6757 1.0
-19.2185 9.47085 -5.0731 1.0
-17.75795 -1.0218 -10.03475 0.0
-11.630534 6.904217 8.131566 2.0
1.5007 8.85265 32.272099 2.0
-21.962101 6.503725 32.0788 1.0
-20.248861 -0.1078 -11.075587 0.0
-28.761099 -10.156817 -0.979967 0.0
-19.883101 13.66575 -39.145 3.0
-8.5084 14.4425 20.730301 2.0
19.663574 11.333175 40.580498 2.0
-17.6898 9.24845 -23.958549 0.0
-19.09955 13.046175 -42.698277 3.0
-3.3189 5.48245 28.979467 2.0
-24.107748 -0.913463 -9.115001 0.0
-17.6511 4.13775 7.1891 1.0
-25.7304 -17.681099 2.3335 0.0
6.918689 11.503917 34.681751 2.0
6.94475 8.073 36.652527 2.0
-19.2992 10.77475 -5.459433 2.0
1.1739 6.890517 33.245567 2.0
-19.587 8.33795 11.1068 1.0
-19.514975 9.655125 -31.715675 3.0
-19.61935 9.637899 -17.074623 1.0
-18.133801 -7.121424 -5.289858 0.0
-26.028999 -9.856784 -3.2389 0.0
-19.34016 11.16481 -2.73174 2.0
3.8628 9.68305 33.674301 2.0
10.721971 15.683307 36.246174 2.0
-25.463972 2.863393 43.288086 1.0
-26.326199 1.0933 44.915501 1.0
-19.165501 6.43115 2.0017 1.0
5.69075 10.164551 34.346401 2.0
-6.9506 8.50335 21.7689 2.0
-1.7171 9.28035 28.862701 2.0
-28.1744 -16.870701 2.47835 0.0
4.0241 10.11165 33.169899 2.0
-25.6777 -12.03575 -1.824675 0.0
3.919089 6.940206 35.293472 2.0
-18.691549 9.67615 -28.692799 3.0
27.444 14.65295 43.1647 2.0
-20.300001 5.909417 -18.7474 0.0
-20.736767 12.518784 -44.275131 3.0
-15.510699 4.069836 9.347272 1.0
-28.462513 -5.870536 -3.868386 0.0
-24.704273 -17.305132 2.07445 0.0
-20.750299 10.77475 -30.435101 3.0
-4.56385 5.12585 27.631901 2.0
22.481649 14.690225 41.345249 2.0
-20.1765 10.06485 -24.731001 0.0
-17.189751 10.2967 -18.021351 2.0
-15.6495 10.76965 1.7424 2.0
-22.676159 -13.696569 -1.28512 0.0
1.50655 14.70505 30.976551 2.0
-18.71015 -0.0456 -11.0281 0.0
-21.883524 6.9058 31.491802 1.0
-26.89143 2.901636 47.689167 1.0
-21.296978 -14.920572 0.498592 0.0
-19.084778 2.098672 17.279766 1.0
-18.863367 9.36755 -27.276434 3.0
-18.149799 0.99665 18.9202 1.0
-19.353968 7.123617 -4.4953 1.0
-19.940233 0.635117 -11.761066 0.0
-20.168234 8.879149 -23.678932 0.0
-20.2071 10.99335 -4.7508 2.0
-5.57175 6.1189 25.614799 2.0
-14.2937 1.94905 -13.0438 0.0
-25.105558 -0.120721 -9.142186 0.0
-15.926325 2.2177 -12.968725 0.0
-17.74205 10.30105 0.2448 1.0
-7.134275 13.08105 21.952652 2.0
4.4965 16.907183 33.533833 2.0
-20.0137 3.76155 15.0513 1.0
-22.0697 -1.56965 -10.0744 0.0
-19.458725 7.485525 -22.115725 0.0
-9.936649 4.1541 11.304001 2.0
-16.3232 0.58635 -11.0111 0.0
9.523642 8.663808 37.527302 2.0
-18.642166 12.250216 -34.563416 3.0
-10.63995 5.5115 10.28125 2.0
-21.125324 8.273175 -20.115 0.0
-3.105663 14.510159 26.907347 2.0
-19.448299 -0.03455 25.3594 1.0
-20.472057 2.446178 -13.726229 0.0
20.043798 9.37185 42.075298 2.0
-8.46733 15.31911 21.490742 2.0
-29.013666 -12.030784 0.7703 0.0
-11.0519 10.28605 10.9551 2.0
3.008766 13.69065 31.902435 2.0
0.797 5.84065 33.889301 2.0
-21.3936 2.04045 26.8449 1.0
-24.241024 -5.65745 -6.4272 0.0
-20.6141 6.25435 18.5361 1.0
-14.5196 6.34045 -1.4032 2.0
-26.258215 2.912621 45.925716 1.0
-19.4011 -0.41065 26.198 1.0
-18.508635 4.494484 7.875166 1.0
19.060951 10.71315 40.589851 2.0
-17.2257 10.37945 1.5338 2.0
-18.65855 13.099 -41.576401 3.0
3.44115 7.9647 33.856251 2.0
19.729406 10.092351 41.271191 2.0
-19.427999 7.54155 -7.7026 1.0
-19.700621 10.699329 -6.9011 2.0
-23.075859 -8.870771 -4.64724 0.0
-17.959919 -4.68913 -7.24386 0.0
-15.2222 11.94865 5.70085 2.0
-20.998199 12.56555 -43.2495 3.0
-18.04475 12.2474 -42.060551 3.0
-18.284351 11.86235 -33.0989 3.0
-8.3979 7.37205 19.9811 2.0
-20.935238 2.286012 24.091711 1.0
-18.507002 12.05285 -36.273968 3.0
-18.16095 10.126101 -1.4845 1.0
-17.834734 10.902484 -28.256601 3.0
-20.105536 0.471483 26.243433 1.0
-6.472284 9.519733 22.52755 2.0
-25.7509 0.74135 43.252499 1.0
-3.7012 16.76755 27.83375 2.0
-19.0933 -0.37495 25.091101 1.0
-17.5103 5.35245 3.105433 1.0
-16.847124 13.116375 5.0829 2.0
-18.349049 1.66275 17.880199 1.0
-10.6536 5.75965 10.9447 2.0
-16.885201 10.639684 -8.6229 2.0
-22.54435 5.3043 35.314949 1.0
-11.907949 9.701901 10.5175 2.0
-13.8943 9.93355 1.9038 2.0
-23.148684 -4.1243 -7.762233 0.0
-17.372601 7.1506 -11.243401 2.0
-17.959049 10.11955 -24.392599 3.0
-18.27285 0.85095 -11.740399 0.0
-17.780399 11.92565 -47.679699 3.0
-20.422974 5.8838 13.670549 1.0
-20.302282 2.669183 20.105799 1.0
-18.67124 11.48443 -23.065121 3.0
-20.3155 4.19885 -16.8379 0.0
-15.5072 4.91645 -19.1071 0.0
-4.054533 12.715516 25.461082 2.0
-26.065676 -16.928799 1.526575 0.0
26.294514 12.138824 42.90781 2.0
-9.616166 4.926783 15.712033 2.0
-20.78005 12.483674 -45.8503 3.0
-21.3276 8.40345 28.419701 1.0
-19.733734 6.655884 2.5331 1.0
-8.105332 5.28175 22.6772 2.0
-18.6938 11.20055 -46.862499 3.0
-20.473581 6.48845 16.278616 1.0
-5.956966 11.511933 22.938185 2.0
-21.062099 10.80785 -38.658401 3.0
-16.9282 1.39815 16.497101 1.0
-16.336615 -6.488064 -5.663014 0.0
-13.4277 8.30365 4.5705 2.0
-25.790701 1.114217 42.245235 1.0
-0.74962 10.724231 28.95542 2.0
-21.899502 7.30293 -17.971142 0.0
-9.901325 4.91445 12.948299 2.0
-9.69225 4.03645 15.65785 2.0
-22.698 -13.067678 -1.845771 0.0
-20.5921 10.44365 -39.504547 3.0
2.70725 11.89195 31.633322 2.0
1.90956 7.69755 33.099262 2.0
-20.4086 11.22045 -29.704834 3.0
15.906651 7.669975 41.739475 2.0
11.96 7.28785 40.401699 2.0
-12.6609 7.20915 4.6078 2.0
-16.148651 7.29335 -2.282175 2.0
4.506 11.09285 33.264477 2.0
2.0623 6.86725 33.543499 2.0
-1.6642 8.03335 29.8321 2.0
8.0773 6.49395 38.129501 2.0
-21.1705 6.26515 -17.1227 0.0
24.892099 16.309732 42.518353 2.0
-29.093534 -14.108951 2.447133 0.0
-19.65835 6.72965 1.58055 1.0
-18.269884 13.121422 -49.721371 3.0
-25.471735 1.899417 41.341568 1.0
8.7405 10.65037 36.062992 2.0
-25.244715 -9.476734 -3.848167 0.0
-18.3727 5.43895 3.7375 1.0
-20.68055 6.103237 19.096399 1.0
-20.916468 11.680783 -45.073368 3.0
-20.8631 5.71815 -17.2122 0.0
-18.696079 11.29209 -20.868399 3.0
-0.716225 8.09585 30.1285 2.0
-20.36095 9.6735 -37.09425 3.0
14.6453 17.45085 38.7911 2.0
-20.7229 8.40545 27.3794 1.0
-24.504318 -2.908385 -7.74354 0.0
-20.502382 11.904365 -41.26292 3.0
-17.974098 -4.2374 -7.62275 0.0
-21.146883 5.895017 24.693949 1.0
-23.230436 1.693838 33.313873 1.0
-15.76595 8.096217 -5.315867 2.0
-19.0923 11.89975 -27.9755 3.0
-19.5376 -11.80835 -1.8608 0.0
8.4234 8.32055 36.858601 2.0
-10.14165 10.499784 14.103333 2.0
25.098051 12.082675 42.657177 2.0
-13.0057 8.43755 6.4143 2.0
-17.997299 11.76525 -46.717701 3.0
-12.347633 7.501067 6.8875 2.0
-8.8285 9.77995 17.2113 2.0
-16.722834 6.289883 -0.1511 1.0
-18.8559 6.77915 -2.2861 1.0
-9.70255 6.7081 16.063 2.0
-17.88135 9.06265 -18.162601 2.0
-4.55905 7.7198 25.7232 2.0
-14.119101 9.989 0.7059 2.0
-19.156574 8.31501 2.26732 1.0
-18.089619 12.89549 -48.908924 3.0
-12.342501 9.57535 9.3272 2.0
-22.918161 -12.307135 -2.308239 0.0
-20.2138 9.76695 -15.494 1.0
-10.337266 12.309216 16.727001 2.0
-20.578751 2.8509 21.29195 1.0
-17.518501 6.3469 -1.26205 1.0
-9.05695 7.48685 18.07485 2.0
-8.95048 4.88905 20.252741 2.0
-18.282801 12.90625 -39.625999 3.0
-17.645401 10.415 -2.13035 2.0
27.289524 16.818199 42.637051 2.0
1.4153 11.5257 30.556549 2.0
-14.6095 14.28875 12.5901 2.0
-12.540833 12.459399 12.505249 2.0
-21.967865 5.236167 -14.928985 0.0
-25.690901 0.104364 -9.0851 0.0
-15.130971 12.270179 6.298957 2.0
-19.248701 8.46695 3.9204 1.0
-20.038601 9.160749 -26.6894 3.0
-11.279034 5.91785 7.511033 2.0
-13.3472 11.42115 8.7735 2.0
-17.849751 12.272551 -49.477203 3.0
-25.698082 -1.472817 -8.077367 0.0
-16.8622 2.78605 10.2346 1.0
-2.0942 7.85115 29.4118 2.0
-7.2453 14.29515 21.841801 2.0
-20.8528 10.27965 -26.845301 0.0
-14.378 8.988251 0.5169 2.0
-10.9435 6.875983 11.069733 2.0
-25.9345 -6.105984 -5.386967 0.0
-21.225275 3.287775 23.849625 1.0
-13.1132 10.321433 6.666533 2.0
19.53495 16.905664 40.498737 2.0
-18.901682 10.724334 -8.86285 2.0
-19.7521 10.79845 -21.6096 3.0
-18.101267 10.738116 -4.5464 2.0
1.3317 18.099949 31.920101 2.0
-5.6592 7.333784 25.267832 2.0
-16.001301 7.86115 -6.3407 2.0
-17.9298 11.115817 -29.373901 3.0
-16.102352 4.541575 -18.277374 0.0
-17.079948 10.2623 2.32955 2.0
9.31805 7.64455 38.457249 2.0
-4.4266 7.17435 26.418699 2.0
-20.324574 9.97795 -13.56575 1.0
-16.290909 13.3045 6.3148 2.0
-15.274825 7.297125 -3.136875 2.0
-9.5135 9.78725 16.8948 2.0
18.05205 13.13025 39.556076 2.0
-14.197 1.68605 -12.4711 0.0
-19.440367 8.91001 -10.296683 1.0
-14.7671 8.10999 -0.93118 2.0
-18.898075 12.023975 -31.634399 3.0
3.56255 11.2792 32.677452 2.0
6.5012 12.381001 34.128601 2.0
-22.02515 6.53535 -16.6133 0.0
-20.6516 10.14985 -35.855549 3.0
-27.299967 -18.080284 2.3462 0.0
-18.619301 12.72235 -40.081947 3.0
-20.629499 12.22415 -40.646702 3.0
-19.31826 12.17281 -33.834099 3.0
18.671684 11.4684 40.166664 2.0
-15.4644 5.81305 4.8884 1.0
-22.162399 5.35435 36.505501 1.0
-20.061281 4.335083 14.111917 1.0
-18.9065 6.76495 -20.1759 0.0
-18.741199 -12.75175 -1.0559 0.0
-20.467701 10.07015 -17.557652 1.0
-19.71896 8.517591 14.073441 1.0
-10.932079 10.83443 13.4998 2.0
-16.5385 10.85075 -0.4769 2.0
-7.1599 7.07355 22.593 2.0
-14.1094 9.292131 1.2777 2.0
-15.1214 10.311616 0.868633 2.0
-10.2721 9.43865 15.0769 2.0
5.97635 11.291201 34.221001 2.0
-2.4597 4.99695 30.5347 2.0
-18.901011 10.916039 -42.321011 3.0
-19.624399 8.28145 9.309 1.0
-18.2873 6.46895 -12.9302 2.0
-18.233549 1.0048 19.5158 1.0
16.758375 15.100901 39.043224 2.0
-17.6075 10.30495 -20.592899 3.0
-20.645599 10.830116 -28.155832 3.0
0.16075 7.4865 31.3703 2.0
2.6598 11.39015 31.161501 2.0
-18.56665 11.11565 -37.352699 3.0
-9.292026 7.487575 17.313074 2.0
-17.357201 8.916901 -15.2852 2.0
19.301701 9.13055 42.446499 2.0
-16.115566 2.3059 13.685866 1.0
-20.694571 10.295107 -23.947586 0.0
-20.155233 5.283884 -18.482332 0.0
-26.836199 -1.457983 -7.415433 0.0
-20.051725 9.0635 -24.711275 0.0
-17.713167 10.71065 -26.923666 3.0
-20.1786 10.82155 -49.472099 3.0
-21.133739 10.91653 -23.340361 0.0
-15.243401 5.1367 8.210199 1.0
14.54025 18.26465 39.267651 2.0
-21.068699 -1.2757 -10.109699 0.0
-20.133301 9.3015 -32.898354 3.0
-4.4849 6.505516 27.4695 2.0
-0.9961 8.94285 29.1343 2.0
-16.9403 -8.350183 -4.349733 0.0
-27.238049 2.10385 47.126049 1.0
17.849775 9.700699 40.848774 2.0
-4.071591 16.678968 27.323345 2.0
-19.456282 7.4876 2.066083 1.0
-17.1084 8.698925 -22.973776 0.0
0.4669 12.52258 29.759571 2.0
-15.691401 4.916099 -4.2876 2.0
-19.198999 10.35345 -42.415699 3.0
-17.8992 11.35925 -21.677301 3.0
23.44035 13.3177 41.592102 2.0
16.35165 8.8516 41.03595 2.0
5.752333 7.657816 36.263885 2.0
22.158899 16.782551 41.614399 2.0
-20.632626 12.496325 -47.699104 3.0
-16.1796 9.31995 -8.678751 2.0
-14.8773 9.85545 -0.0957 2.0
-17.106966 4.132717 -16.105982 0.0
-0.734122 16.284462 29.930088 2.0
-28.060999 -9.475684 -2.253367 0.0
-19.8965 10.05735 -37.662498 3.0
-21.3064 11.99715 -43.706501 3.0
-20.905535 4.494627 19.851912 1.0
-0.93215 10.7135 28.2598 2.0
0.14355 7.303525 32.0924 2.0
-24.3449 -9.20605 -4.3798 0.0
-14.0792 9.23865 3.4575 2.0
-23.665333 0.896628 35.471943 1.0
1.0642 7.99535 31.8062 2.0
-18.648001 11.23475 -46.016701 3.0
-18.488335 7.87395 -15.856533 2.0
-24.880024 -12.757975 -1.5012 0.0
-19.558235 6.726749 3.714066 1.0
22.948282 14.283767 41.503052 2.0
-19.100777 13.115376 -43.460899 3.0
-23.3685 0.09015 37.405399 1.0
-18.7616 -10.05675 -3.0331 0.0
-20.4317 10.94835 -45.6353 3.0
-15.90953 10.355322 -5.0831 2.0
-19.425533 9.104751 -8.681133 1.0
-17.894632 10.050084 5.078867 1.0
-17.914431 11.68725 -48.681286 3.0
-16.134701 7.13985 -1.7594 2.0
-19.954901 13.60155 -49.717899 3.0
-8.7741 5.64365 20.6588 2.0
-0.3396 5.35935 32.409901 2.0
5.908721 6.70003 36.881157 2.0
-15.678101 4.85805 7.5116 1.0
