# .PCD v0.7 - Point Cloud Data file format
VERSION 0.7
FIELDS x y z label
SIZE 4 4 4 4
TYPE F F F U
COUNT 1 1 1 1
WIDTH 1410
HEIGHT 1
VIEWPOINT 0 0 0 1 0 0 0
POINTS 1410
DATA ascii
-19.396549 12.908787 -13.479544 3.0
-19.53475 8.93335 -16.82645 1.0
-21.219975 -0.472325 17.704475 4.0
-22.235117 13.193851 -21.205484 1.0
31.989878 8.921702 41.810455 3.0
-9.605551 8.601275 9.599066 3.0
-25.726793 -2.648593 -19.843225 2.0
-23.265625 -4.1537 -18.532225 2.0
-24.36754 14.844118 -35.212009 2.0
-31.251965 -3.750692 -18.231274 2.0
-20.0518 6.6591 -1.24605 1.0
-23.104116 -8.089083 32.106968 4.0
-20.544651 10.309601 -16.55975 1.0
-19.54705 12.93625 -35.536549 2.0
-16.52035 0.99625 22.218651 0.0
20.782404 14.875409 36.512798 3.0
18.382063 19.395523 35.42255 3.0
-21.355551 14.71405 -41.297199 1.0
-3.638917 10.648691 21.218203 3.0
-30.616665 -1.900807 -19.133385 2.0
6.141863 12.020635 31.962383 3.0
-19.694672 6.31349 3.29235 0.0
-13.500135 12.764586 6.428669 3.0
-22.18737 19.57823 -61.120426 1.0
20.99745 13.25725 37.087551 3.0
-0.8905 13.407875 24.638626 3.0
-22.736828 12.08925 -22.931509 1.0
21.155727 12.844317 37.378895 3.0
-14.627983 14.36145 9.067383 3.0
24.385452 14.098595 37.452694 3.0
-29.247223 -8.954457 40.739689 4.0
-23.767305 13.751428 -39.376144 1.0
-34.39838 -12.075853 50.597973 4.0
-25.838173 -7.909233 35.077507 4.0
-23.007967 8.306242 4.391862 4.0
-23.41905 14.323999 -35.145451 2.0
-12.288558 9.034331 5.401532 3.0
-15.190559 9.987795 -3.005289 3.0
-34.536354 -13.484018 -12.425542 2.0
-27.203247 -3.717369 31.598364 4.0
-20.743801 -4.212584 25.152466 4.0
-23.85125 11.5338 -33.7117 2.0
-19.32065 0.41165 16.671801 4.0
-21.54475 13.98405 -40.102951 1.0
-33.062241 -16.59185 50.548916 4.0
29.9328 9.1854 41.3638 3.0
-21.525249 14.63075 -43.597549 1.0
-18.448851 -2.50665 22.491949 4.0
-26.436665 -5.084948 31.977627 4.0
-21.76346 9.90088 2.979977 0.0
-24.060059 15.201984 -46.352814 1.0
-33.1502 2.252933 -19.217295 2.0
-11.401614 12.405726 8.963728 3.0
27.652149 11.01345 39.546749 3.0
-22.2913 -8.495649 31.63275 4.0
-2.21944 8.963607 23.967886 3.0
-4.296931 17.679344 23.3437 3.0
-21.176411 14.171272 -26.752819 1.0
35.163799 14.549304 39.047024 3.0
-19.455482 3.560484 -24.085417 2.0
-6.60445 17.19705 20.60495 3.0
-27.474133 5.093595 -23.509472 2.0
-19.012249 12.5236 -15.3294 3.0
-26.390299 -0.454596 -20.968367 2.0
8.2037 18.365049 31.732981 3.0
-1.27785 11.776424 24.300274 3.0
-31.50745 -12.25065 -14.04935 2.0
25.401855 18.696457 37.289948 3.0
-22.731232 0.456417 17.289083 4.0
-23.458549 17.202049 -45.641151 1.0
6.429412 12.834475 31.685669 3.0
-22.1049 2.78095 10.4484 4.0
-21.420145 18.730951 -53.367439 1.0
-23.948408 -2.551698 24.483398 4.0
3.28565 11.056016 29.836416 3.0
-21.174992 13.840937 -11.012876 3.0
-22.126617 11.972318 -14.55822 1.0
-30.588985 -2.970852 -18.793093 2.0
-19.309492 10.634864 -15.877697 1.0
-21.713512 -2.144463 21.935833 4.0
-21.762749 17.054094 -49.177296 1.0
-32.397205 -12.103312 -13.813251 2.0
-23.294371 -2.658611 -19.450777 2.0
2.365733 9.98142 30.513924 3.0
-22.18495 16.252239 -40.40527 1.0
-20.535641 13.107216 -22.562759 1.0
-19.774868 12.783378 -19.09779 1.0
-5.857037 7.450375 14.312387 3.0
-24.707787 8.628257 -29.224562 2.0
-9.997669 11.720372 9.628428 3.0
-21.569288 11.402153 -24.034803 1.0
-18.260851 11.57225 -12.56195 3.0
-22.9212 19.517376 -60.356152 1.0
3.691683 17.280495 28.481682 3.0
-36.746513 -15.179365 54.857269 4.0
-19.378897 6.762323 -0.299498 1.0
-7.828921 16.707455 18.640556 3.0
-29.9846 -11.068391 -14.886973 2.0
-32.392189 4.366613 -20.492085 2.0
9.274599 17.005362 32.368156 3.0
-13.969488 8.095338 -2.193521 3.0
-23.989822 -5.814682 -17.642473 2.0
6.73285 9.755684 34.010849 3.0
-22.252329 1.525032 14.124583 4.0
-16.98604 13.116426 -1.192893 3.0
-38.787601 -16.5233 58.238052 4.0
-22.902657 4.756803 -24.986778 2.0
-35.092831 -16.488329 52.385597 4.0
-4.765377 15.984566 21.57095 3.0
-3.986294 7.496369 19.012352 3.0
-21.210384 15.85362 -39.702023 1.0
-31.443249 -15.3297 48.69735 4.0
34.792412 9.718873 40.930984 3.0
-22.111647 9.523033 3.609913 0.0
-18.594049 9.44725 -14.34015 3.0
15.70815 10.899626 38.275902 3.0
-20.554495 13.182172 -23.279974 1.0
16.255947 15.225657 35.562935 3.0
-20.17448 -0.224404 17.648815 4.0
-3.732279 13.456162 21.137794 3.0
-35.43317 -1.203739 -16.647957 2.0
-15.583016 12.396267 -4.668334 3.0
11.745088 18.354609 33.519711 3.0
22.984802 11.694212 38.928791 3.0
-22.703152 9.097775 -5.236525 1.0
-24.994963 -7.227087 -16.740219 2.0
-28.562025 -13.45805 -12.834625 2.0
-23.866674 15.189465 -39.374771 1.0
-20.51395 12.31085 -26.484949 1.0
-23.968338 15.551295 -50.25267 1.0
-13.23494 7.523461 2.317372 3.0
-20.802301 13.153061 -17.026388 1.0
8.861849 19.079552 32.081352 3.0
32.399429 12.384109 39.379753 3.0
-24.303686 4.047975 -24.331518 2.0
-23.606443 19.382908 -59.380238 1.0
-35.639786 -13.068363 53.769287 4.0
-8.86691 17.036852 17.75359 3.0
18.015961 8.954095 40.80629 3.0
-22.386351 9.107201 -10.74505 1.0
-15.607051 13.345372 5.810164 3.0
-17.89229 10.337399 -11.426445 3.0
-0.39455 15.56095 25.7276 3.0
11.16405 19.36467 33.372673 3.0
-9.850778 12.046071 10.586945 3.0
-0.168033 12.002822 26.002272 3.0
-1.192092 7.849846 26.769108 3.0
-22.66345 -8.89995 33.07975 4.0
-34.360714 -5.744437 -15.873791 2.0
-40.823952 -18.378275 60.379757 4.0
-28.334351 2.25555 27.105499 4.0
-21.536903 16.985083 -52.359325 1.0
-20.832535 18.712461 -57.589695 1.0
-24.295435 5.406868 16.223488 4.0
12.80812 18.698196 33.917091 3.0
8.1559 12.562634 32.623283 3.0
-24.505009 -7.72089 33.114632 4.0
16.69545 12.534851 36.692249 3.0
-21.69175 12.24155 -34.712551 2.0
-25.069643 -2.311461 25.717861 4.0
-21.211395 15.586411 -37.24461 1.0
-19.446951 10.54305 -4.87865 1.0
-28.76445 -0.74385 -20.361349 2.0
-26.398724 -4.407598 31.004871 4.0
-30.641014 2.60185 -20.803324 2.0
-24.595984 -7.075191 32.093082 4.0
-22.173649 14.484475 -44.366722 1.0
-29.15645 -8.829075 40.190098 4.0
-32.901947 -11.930336 -13.681265 2.0
-28.580267 0.817513 -21.074394 2.0
17.985594 17.363478 35.586594 3.0
-22.61561 17.033537 -45.359268 1.0
-17.689257 5.069933 11.010886 0.0
-34.153366 -10.018145 -13.899342 2.0
-18.018526 4.774993 7.838652 0.0
-22.097401 3.527675 -23.714176 2.0
-33.364979 -10.357494 48.141254 4.0
4.526675 9.4995 32.900574 3.0
5.18875 18.582951 29.73645 3.0
-21.56295 10.31125 3.45895 0.0
-6.782623 12.522859 16.19392 3.0
-22.45315 14.62875 -27.980249 1.0
-24.394424 2.514225 -23.068581 2.0
-21.307953 -4.534452 25.967501 4.0
-0.982489 11.731544 25.082113 3.0
-31.381233 -9.51033 -15.44965 2.0
-7.61715 10.947117 14.683617 3.0
-27.39773 -10.332423 39.813293 4.0
25.37055 12.51825 38.102348 3.0
-17.384199 9.668394 -10.61692 3.0
-20.309549 8.4586 -6.7757 1.0
23.396049 15.80405 36.819149 3.0
-17.499561 13.311212 -2.110111 3.0
-15.336226 8.827375 -7.395625 3.0
-9.0892 9.1078 10.67795 3.0
-22.5257 18.237751 -50.709801 1.0
-25.007774 -3.646962 27.795065 4.0
-22.042732 9.449416 7.109007 4.0
-5.129814 10.577119 18.810911 3.0
-29.909138 -8.571958 41.120518 4.0
-20.82725 15.491776 -37.607674 1.0
-23.367641 -0.657079 20.415493 4.0
11.8441 13.68235 34.418999 3.0
-21.076784 19.1339 -57.969086 1.0
-19.490057 12.700315 -18.358498 1.0
-22.719799 12.00417 -23.605389 1.0
-29.198015 -13.113792 -13.156091 2.0
-25.712772 4.882639 -24.962139 2.0
-20.423237 10.640844 -19.387756 1.0
-20.131002 5.40317 -27.08143 2.0
-13.792337 12.52558 5.002177 3.0
-22.220762 16.614605 -59.296082 1.0
-20.804825 10.476801 0.478686 1.0
16.961998 8.648298 40.435188 3.0
-24.8787 -2.8602 26.146 4.0
-27.778574 2.617112 25.742598 4.0
-5.157175 16.964037 21.941687 3.0
-16.308767 9.6065 -7.911892 3.0
-21.80595 17.379049 -51.393951 1.0
-14.58782 9.201066 -2.19774 3.0
-33.688801 -7.29165 47.95015 4.0
-18.709 5.0548 5.66485 0.0
-32.364147 -5.777939 -16.956184 2.0
-27.944176 8.439899 -24.429249 2.0
-28.280312 -7.968821 38.213387 4.0
-24.334469 -4.486983 28.127789 4.0
-17.540766 3.892209 11.725883 0.0
-27.43235 2.733875 25.169125 4.0
-18.391758 12.704825 -9.599426 3.0
24.97444 14.928958 37.220783 3.0
-25.08136 -4.001641 28.505037 4.0
-13.89695 8.19815 -4.05255 3.0
-33.496475 -2.363375 -17.432306 2.0
-19.798433 -2.568301 22.240234 4.0
15.600232 16.211739 35.139824 3.0
28.570732 17.760612 37.68372 3.0
-26.23465 -12.20945 40.966351 4.0
-26.051914 -9.890332 37.603371 4.0
-32.91935 -6.310775 -16.494926 2.0
-18.403656 -0.193403 18.37483 4.0
-19.189924 11.498792 -16.162216 3.0
-21.547468 17.005905 -59.26622 1.0
-34.225834 -4.429942 -16.364027 2.0
19.813602 18.386351 35.7967 3.0
-22.953926 12.411325 -30.6759 1.0
-2.408517 8.183124 23.36618 3.0
16.145401 12.7874 36.358398 3.0
-22.98835 11.65265 -33.362251 2.0
-14.204461 11.417135 -0.56866 3.0
29.586206 17.318193 38.20293 3.0
-24.911343 3.005972 20.178013 4.0
-35.260551 -5.182386 -15.293835 2.0
-14.840672 13.190723 6.182368 3.0
-21.222635 3.299807 8.541155 4.0
-19.42909 2.707924 10.315979 4.0
-21.806576 5.407377 2.633386 4.0
-9.270083 12.431413 12.422292 3.0
-21.588636 17.036638 -55.783916 1.0
-29.338236 -6.434094 38.716751 4.0
-10.23555 8.70195 8.82475 3.0
1.57557 12.410651 27.825562 3.0
-23.27335 19.993151 -50.369949 1.0
-29.572973 -1.26026 -19.827091 2.0
-28.434349 -5.2549 35.633751 4.0
-16.209249 12.56025 -7.13605 3.0
-21.15262 14.814972 -39.752285 1.0
-12.73837 8.607127 4.360882 3.0
-24.640333 0.572606 -21.731382 2.0
-19.524851 9.98915 -4.76645 1.0
-25.999084 -11.298041 39.102989 4.0
-33.003304 -16.426399 50.020149 4.0
-32.723244 -14.883448 48.806049 4.0
-22.645716 15.258883 -51.348866 1.0
-23.998468 -3.012529 -19.403868 2.0
-17.278 1.83015 18.826851 0.0
-1.82045 15.866734 24.529167 3.0
-23.176292 15.898004 -37.285587 1.0
-18.599369 5.99174 6.78585 0.0
30.10795 12.16825 38.82515 3.0
-23.932423 15.181335 -40.017975 1.0
-34.330002 -2.5288 -16.829723 2.0
25.380032 13.503326 37.75164 3.0
-20.16152 -3.140956 23.356445 4.0
-23.652178 17.617264 -55.433395 1.0
-31.561432 -8.156179 44.010704 4.0
20.875 12.3102 38.220551 3.0
-20.20455 11.24865 -16.39595 1.0
-7.72125 6.84585 9.99855 3.0
-19.001562 -0.313675 18.367626 4.0
-29.181078 0.251506 30.661345 4.0
-22.562057 9.248732 2.58444 0.0
-28.431896 -0.505936 30.657242 4.0
-25.026773 13.802246 -32.720104 2.0
21.892174 12.377587 38.232075 3.0
-24.932858 11.356267 -30.967409 2.0
-19.362698 4.995171 4.738244 0.0
-20.404999 11.9921 -21.581764 1.0
-21.73715 16.41045 -60.077049 1.0
-25.404434 1.29842 -22.160431 2.0
-23.285788 16.672449 -43.908062 1.0
-22.857023 4.761293 6.409203 4.0
-16.63773 9.208711 -9.574339 3.0
-35.824551 -2.523517 -15.87045 2.0
-40.537701 -19.042662 59.967426 4.0
-21.530504 19.465328 -60.334961 1.0
-20.4258 4.535575 4.821325 4.0
-14.14207 12.458329 3.986581 3.0
-25.027109 4.380734 20.135681 4.0
-1.3205 13.160033 23.982946 3.0
-7.58315 10.375351 14.76775 3.0
-24.584629 -8.65669 -15.647023 2.0
-16.220247 12.441742 -4.076155 3.0
-19.57975 10.75595 -9.45865 1.0
-34.280518 -11.412516 -13.251745 2.0
35.460552 15.836917 39.02095 3.0
-7.550248 14.503792 16.993834 3.0
-22.116198 -6.376907 28.962545 4.0
-28.803501 -0.71435 31.49815 4.0
-16.490288 12.934671 -0.590128 3.0
-21.20598 13.269211 -19.406469 1.0
-22.944353 -0.600644 -20.763512 2.0
-24.311291 -0.490094 21.167074 4.0
40.933098 10.10975 40.328899 3.0
-24.359814 7.750204 -28.316231 2.0
20.044233 9.85835 40.631432 3.0
-28.814081 -1.931544 -19.912388 2.0
-25.950945 -5.006468 31.047726 4.0
-17.73155 5.734117 8.600249 0.0
-22.689077 12.777061 -23.217653 1.0
-23.240778 7.560853 4.732345 4.0
-26.255749 3.8819 -24.6415 2.0
-27.773518 -0.174515 -21.058746 2.0
-34.407326 -6.758955 -15.487094 2.0
-23.700293 13.449928 -36.973785 1.0
-34.120384 1.277607 -18.358633 2.0
-33.538799 -7.46978 -15.65939 2.0
20.095287 11.261501 38.981361 3.0
-29.593262 -4.380818 -18.666807 2.0
23.607622 8.242505 42.528107 3.0
-23.604525 -4.368342 27.149878 4.0
-20.143593 0.828874 14.898825 4.0
-13.470746 8.605856 1.563513 3.0
-18.856981 6.838431 4.840264 0.0
-22.936329 -7.136766 30.640707 4.0
-23.795349 18.62455 -58.11935 1.0
-20.49601 10.90639 -4.75519 1.0
-14.249722 8.897346 -1.288963 3.0
3.97815 10.353442 31.361078 3.0
-23.604197 4.36417 11.37688 4.0
7.551928 9.230878 35.451672 3.0
-22.840649 8.29699 -1.04245 1.0
-19.119732 12.987801 -9.610088 3.0
-34.088135 -16.925776 51.684509 4.0
-21.1096 19.055199 -51.994549 1.0
-24.404551 -0.958139 22.547905 4.0
-28.199734 -12.011205 -13.78242 2.0
-30.592911 -13.27688 -13.270557 2.0
-15.198233 11.762325 -3.01238 3.0
5.808471 9.595065 33.786308 3.0
-21.994652 12.193649 -15.5505 1.0
-9.001625 12.559625 13.077299 3.0
-19.091946 6.83784 0.222022 0.0
-21.797682 14.809008 -30.196178 1.0
-25.21245 5.23665 -25.96925 2.0
1.6925 9.49421 30.127981 3.0
-24.61285 -9.81495 35.549549 4.0
-21.530602 16.592417 -50.199024 1.0
6.071253 11.009691 32.331352 3.0
-21.399084 13.8451 -21.75955 1.0
-18.118551 5.13695 9.71735 0.0
-27.39385 7.884225 -24.991825 2.0
-29.946238 2.60757 -21.092184 2.0
5.25205 14.08245 29.87225 3.0
-21.185492 2.241333 -22.53689 2.0
36.597797 15.090575 38.836777 3.0
-26.812181 10.946517 -28.567949 2.0
-18.129026 10.656526 -12.069736 3.0
-8.35185 13.05585 14.68465 3.0
-24.39912 -7.906642 -16.318493 2.0
27.475744 16.591644 37.623688 3.0
-24.83395 -10.37045 37.186749 4.0
-32.009205 -11.423508 -14.267874 2.0
-20.81115 12.86955 -30.827749 1.0
-33.803463 -8.99406 49.174992 4.0
-20.28825 6.715763 -29.661713 2.0
-27.7045 -6.67275 35.476852 4.0
-33.038765 -0.821629 -18.132353 2.0
-13.573181 9.554649 1.935837 3.0
-23.777134 13.751417 -37.956551 1.0
-28.236759 -8.315236 38.669254 4.0
7.838637 15.586297 31.607908 3.0
25.47925 9.447349 41.198448 3.0
-22.834145 9.627696 -3.353432 1.0
-20.200094 11.710162 -34.150028 2.0
-33.75927 -1.178284 -17.625813 2.0
27.390131 15.229914 37.69595 3.0
-19.655325 10.24125 -8.611575 1.0
-17.327869 12.869757 -3.679583 3.0
-12.92975 7.60735 3.48995 3.0
-29.269079 0.838729 30.207348 4.0
11.008559 9.617356 37.251556 3.0
-19.800344 10.58428 -4.000842 1.0
-22.518259 10.665868 -7.6081 1.0
15.656773 13.438282 36.150635 3.0
-23.740871 -2.040339 23.5769 4.0
-20.506573 10.015238 -13.453817 1.0
-24.655268 6.160817 -26.509422 2.0
-26.140049 -8.729401 36.510452 4.0
-18.125368 13.374836 -3.995897 3.0
-15.636585 12.408134 -0.829121 3.0
-19.80945 9.297519 -32.051159 2.0
-24.031378 -6.482805 -17.297033 2.0
-17.680149 1.80295 18.161551 0.0
23.5954 16.612076 36.70237 3.0
-4.733966 14.248741 20.400738 3.0
-5.282572 14.239372 19.732435 3.0
-21.189507 19.277216 -59.670319 1.0
25.403498 16.559568 37.137512 3.0
33.401035 16.040361 38.574482 3.0
-10.051088 12.682683 11.761603 3.0
-26.694645 0.246671 26.049698 4.0
-8.532671 13.482058 14.874253 3.0
-17.621923 4.378052 10.321277 0.0
-22.220663 11.046265 -8.202544 1.0
-26.334015 -2.567187 28.223866 4.0
-9.610089 11.023706 10.959687 3.0
-23.209204 10.647859 -32.350231 2.0
-25.266987 3.023494 21.203911 4.0
-23.699726 17.992788 -58.984646 1.0
39.399574 12.56905 39.523376 3.0
2.289328 12.411287 28.533447 3.0
-25.442816 -2.346567 26.333868 4.0
-24.045567 4.398268 14.19628 4.0
6.753132 11.087901 33.096413 3.0
-24.147751 6.59625 18.474051 4.0
-25.776966 -8.947287 -15.600286 2.0
-30.507925 -15.070575 47.533653 4.0
28.205065 10.335213 40.427746 3.0
9.616891 13.131946 33.445137 3.0
-20.449013 10.109923 -14.191134 1.0
-5.68305 9.05435 17.299749 3.0
24.962406 16.999235 37.010704 3.0
-32.357079 -8.911696 -15.518658 2.0
-21.83255 13.229637 -17.351112 1.0
-17.763588 5.02875 8.899513 0.0
-33.782139 -9.213733 -14.585345 2.0
-17.42565 12.75125 -11.32515 3.0
-21.797934 6.04565 0.136967 1.0
-36.623734 -17.420683 54.654568 4.0
-17.912037 3.627258 10.512905 4.0
-28.54455 -3.79785 35.003448 4.0
-22.239923 -3.064208 23.899004 4.0
-34.371151 -17.25255 52.409351 4.0
-6.4609 17.606251 21.146351 3.0
-12.830799 13.076421 8.224899 3.0
-13.825052 11.774354 0.859294 3.0
-19.634327 10.9858 -17.089489 1.0
1.929761 12.810109 27.884504 3.0
-25.711575 -0.4724 -21.042337 2.0
-34.480606 -2.996611 -16.559109 2.0
-20.447853 13.13272 -15.570074 3.0
-22.605999 -1.350398 21.08638 4.0
-16.959749 5.29305 12.27365 0.0
-38.980019 -16.287292 59.298737 4.0
28.091921 11.7766 39.052479 3.0
-27.18865 -1.245592 29.085985 4.0
-22.76651 7.301067 0.527008 1.0
-34.173187 -9.633229 50.592377 4.0
-22.00705 15.80685 -34.87685 1.0
29.73485 9.70045 40.597752 3.0
-20.042549 9.39665 2.57565 0.0
7.929457 10.604795 34.477554 3.0
-24.340481 -4.731228 -18.293602 2.0
-30.240877 6.80332 -22.259314 2.0
-3.04018 9.62958 22.282728 3.0
-30.994211 -10.610972 -14.97513 2.0
-21.809488 16.600519 -54.812874 1.0
-19.540251 6.8383 2.3776 0.0
-20.611801 14.133266 -29.967133 1.0
-31.704475 1.545499 -19.795378 2.0
-20.087124 13.382826 -22.554626 1.0
-20.374474 12.82 -21.509323 1.0
-19.415308 3.744033 7.611167 4.0
-20.139042 12.794146 -20.867237 1.0
16.974201 18.023687 35.249077 3.0
-34.662655 -0.4591 -17.240583 2.0
11.73313 11.660852 35.771576 3.0
4.744605 11.761115 30.955605 3.0
-11.691883 10.28715 6.665683 3.0
-2.030724 7.596687 24.397902 3.0
-20.757704 -4.992917 26.433041 4.0
-17.988523 12.817712 -6.472449 3.0
-7.255993 7.457017 11.453883 3.0
-26.697561 -10.977992 39.7458 4.0
3.974105 14.223017 29.264914 3.0
-2.261831 17.665171 24.604462 3.0
-27.494329 -3.51603 -19.31077 2.0
-31.07276 -10.408604 44.178375 4.0
-22.43685 5.9216 0.73965 1.0
-36.721924 -16.313192 54.289635 4.0
-21.912149 -8.01665 31.19175 4.0
-21.779133 11.614092 -11.026396 1.0
-19.754101 10.35545 -1.53875 1.0
-23.215427 -5.812551 -17.721916 2.0
-23.271635 12.111355 -34.447117 2.0
28.910309 15.550166 37.972931 3.0
23.362801 14.2255 36.837402 3.0
-20.780437 13.214724 -18.701693 1.0
-2.606685 13.79651 22.60467 3.0
-33.85075 2.06705 -18.900549 2.0
12.428759 20.073984 33.79134 3.0
-7.739325 17.3508 19.12355 3.0
-8.217814 15.183122 16.609423 3.0
-35.197224 -14.588829 -11.802138 2.0
-25.720247 -0.508236 24.731775 4.0
3.649262 17.998798 28.51363 3.0
-22.627623 8.937637 4.015534 0.0
-22.194391 7.2355 -4.350884 1.0
-22.707275 2.46105 12.144176 4.0
-30.334475 -3.641594 39.337952 4.0
-17.200951 13.56505 0.77105 3.0
-23.355408 6.804934 5.771776 4.0
-10.6102 7.222133 7.540333 3.0
-27.29833 -0.89256 28.703268 4.0
-29.829725 -0.408325 -19.981827 2.0
-22.874296 1.154637 -21.928123 2.0
-20.02515 9.18995 -16.91975 1.0
-16.229179 12.410014 -4.735534 3.0
15.176926 12.822684 36.32703 3.0
-22.953535 19.56937 -58.557598 1.0
-33.998024 -2.1779 -17.1954 2.0
3.019776 12.387659 29.188238 3.0
-26.706818 6.73345 -25.238182 2.0
-14.56426 10.332576 -0.598085 3.0
-29.175449 -14.42155 45.849751 4.0
-28.94042 -10.413723 41.750038 4.0
-23.950033 -9.569844 34.80479 4.0
-23.30035 15.58902 -37.656689 1.0
-20.28825 11.64035 -22.62565 1.0
-30.958124 -3.692833 41.774845 4.0
-32.676716 0.552558 -18.838833 2.0
5.743355 8.233653 34.852901 3.0
9.006412 16.584326 32.258652 3.0
-19.350767 1.460451 13.810109 4.0
-22.14855 12.15125 -31.559349 1.0
-10.433463 13.755337 12.425564 3.0
-7.470951 15.956612 18.327662 3.0
-35.93565 -14.168958 -11.479625 2.0
-23.629747 19.413397 -58.607746 1.0
0.83933 10.999792 27.853321 3.0
-37.888149 -15.22885 58.398251 4.0
4.367085 8.605985 33.423603 3.0
-22.11725 16.1271 -53.314148 1.0
-19.138239 9.162443 -1.569979 1.0
-19.623051 9.36835 0.77485 0.0
5.0363 19.334801 30.2064 3.0
-21.643049 13.09915 -38.208149 1.0
-6.16252 14.874283 19.059481 3.0
31.886299 9.0446 41.255001 3.0
-18.622351 -1.81455 20.95015 4.0
0.0259 12.80835 25.142933 3.0
-23.519773 19.046822 -52.995853 1.0
33.403034 13.800555 39.05883 3.0
-33.322117 -6.745717 -16.140398 2.0
-0.997467 15.598014 25.039743 3.0
-4.177287 8.53945 19.5257 3.0
-34.539448 -9.35195 -13.997451 2.0
25.003471 11.408659 39.412567 3.0
-22.5 17.370411 -46.008549 1.0
16.300234 9.945167 39.379559 3.0
-22.968124 13.940525 -43.992451 1.0
-34.01815 -8.39505 50.341049 4.0
-9.704884 7.841183 8.737984 3.0
-23.833851 14.44405 -48.487049 1.0
37.518398 11.715484 39.7808 3.0
-8.314967 9.561051 12.427867 3.0
-23.083866 4.0262 8.936717 4.0
-10.079378 7.808518 8.309948 3.0
-22.42075 5.96405 -0.14285 1.0
-21.821934 14.335073 -27.887402 1.0
-22.177912 11.333249 -9.609805 1.0
-21.300026 13.91335 -35.195824 2.0
-24.200924 2.678075 17.458525 4.0
-26.460548 -9.594869 -15.206962 2.0
-20.437922 10.929524 -5.429203 1.0
-20.46349 9.643605 -12.033054 1.0
-22.845606 13.480447 -27.505724 1.0
-24.77965 15.00195 -33.93195 1.0
-33.830544 -4.020421 -16.738026 2.0
-36.1348 -4.5375 -15.0665 2.0
-23.946398 5.044008 12.822922 4.0
-26.318792 -2.973277 28.594797 4.0
-25.024017 5.741511 20.103966 4.0
-17.29735 13.92115 4.02545 3.0
-33.18095 -12.52245 48.334049 4.0
-5.97553 11.69499 17.52413 3.0
9.8554 9.586533 36.368649 3.0
17.68417 14.527655 36.127968 3.0
-3.54165 12.814083 20.876534 3.0
-22.60598 8.606164 -4.683803 1.0
-37.016159 -18.023415 55.419373 4.0
-16.664692 4.357525 14.187747 0.0
-21.716021 12.288579 -28.882965 1.0
12.414909 9.521005 38.226746 3.0
-12.412398 13.490355 9.569249 3.0
-22.245354 13.461851 -39.051891 1.0
-2.588345 12.021605 22.522186 3.0
23.607262 18.402374 36.647285 3.0
30.627407 13.081329 38.940189 3.0
-29.618301 -12.430537 44.234001 4.0
8.60685 11.758175 33.465599 3.0
-4.064652 16.590719 22.630125 3.0
26.832083 8.663041 42.230381 3.0
-22.14929 19.409122 -57.549316 1.0
-0.90047 14.85905 25.013 3.0
-19.348021 -1.665057 20.787855 4.0
-25.571617 3.370621 22.001953 4.0
-28.204216 5.807815 -23.316982 2.0
-24.985632 2.300289 -22.906466 2.0
-23.573503 17.709425 -60.977177 1.0
-30.38965 -11.52675 44.209549 4.0
-20.837584 -3.376537 23.855505 4.0
-20.09285 11.52835 -20.75465 1.0
-29.561148 -9.563498 -15.82339 2.0
-22.196777 19.438639 -51.660152 1.0
-16.52285 13.760275 6.4321 3.0
-23.116138 7.59436 3.52012 4.0
2.94975 18.003813 28.074863 3.0
-22.231899 8.703775 -11.49555 1.0
-19.184052 3.7233 9.273225 4.0
27.405428 10.894852 39.955997 3.0
-22.242393 11.277118 -24.967272 1.0
-34.218258 -11.771708 50.194378 4.0
31.487249 11.885193 39.477905 3.0
-21.322151 17.6157 -54.854599 1.0
-24.349876 -2.695426 25.359222 4.0
-9.250058 8.195142 9.648215 3.0
-23.700228 13.430011 -36.186512 1.0
-29.344629 -11.441295 43.153088 4.0
-38.046474 -15.954451 58.874802 4.0
-23.470325 12.4461 -36.298874 1.0
11.041034 16.954866 33.265522 3.0
-21.400133 15.8949 -41.043186 1.0
-17.606564 13.576114 -1.19099 3.0
31.609798 10.941409 40.009727 3.0
-4.096815 10.66895 20.469793 3.0
-19.683237 9.600881 -7.86353 1.0
-18.777599 12.5095 -16.490101 3.0
18.06653 10.614346 39.337376 3.0
24.444349 9.05315 41.570148 3.0
-23.402647 7.605479 10.981751 4.0
13.152336 15.181355 34.464645 3.0
-17.609402 12.671234 -9.349668 3.0
-27.538567 1.943904 26.062084 4.0
-23.627192 17.665066 -57.246658 1.0
-30.459251 -2.907917 38.771217 4.0
-16.78455 9.885525 -8.612125 3.0
-11.025083 9.588528 7.927611 3.0
-16.550941 13.238923 1.207135 3.0
-18.713825 14.162618 -3.264222 3.0
-24.263323 4.392162 16.213781 4.0
-20.345276 8.58436 -31.331581 2.0
-5.175875 17.867237 22.612137 3.0
32.785168 9.016254 41.807827 3.0
-22.898407 4.410701 7.210465 4.0
-18.9564 8.9082 -2.63985 1.0
18.789524 9.291778 40.826099 3.0
-28.592951 -5.84025 36.802151 4.0
-5.539183 15.052051 19.945951 3.0
-24.28525 -0.4554 20.1523 4.0
-20.513968 18.987617 -58.618519 1.0
-23.4118 8.0256 11.9186 4.0
-30.123775 -7.5321 40.901451 4.0
-16.728807 11.447394 -7.842339 3.0
-19.785351 10.38215 -3.20795 1.0
-23.198416 9.253302 -30.263943 2.0
-31.639263 -10.995239 45.354031 4.0
-21.547449 -7.422525 29.934458 4.0
15.0914 13.204599 35.632599 3.0
-27.186825 5.747015 -24.02886 2.0
-31.371002 -3.011681 -18.417414 2.0
-20.86306 8.377383 -8.138233 1.0
-34.435898 -5.035655 -16.018095 2.0
22.2195 17.267666 36.329185 3.0
-29.473024 -0.46195 32.434601 4.0
-24.803949 6.42165 19.609051 4.0
-21.769135 15.848217 -49.1073 1.0
32.826881 13.810093 38.977184 3.0
-22.258827 0.934569 15.521918 4.0
-5.541238 12.134298 17.308937 3.0
-2.720756 7.177937 22.219158 3.0
-25.448908 6.82059 -26.459297 2.0
-3.952 6.84825 19.122101 3.0
-21.873625 15.546642 -34.427998 1.0
13.73215 10.82925 37.158951 3.0
-7.93445 17.115749 18.37805 3.0
-9.356558 13.074086 13.233321 3.0
-18.374701 12.776222 -11.009139 3.0
27.392399 9.119744 41.730446 3.0
-39.445606 -17.334377 58.545246 4.0
-30.81225 -2.54575 39.719349 4.0
-20.199717 9.984903 -18.379259 1.0
-26.089289 -1.58434 26.756317 4.0
-39.931774 -17.1283 59.726799 4.0
-34.685776 -14.716725 50.941456 4.0
-23.494564 18.423508 -55.315132 1.0
-22.451374 8.22705 -8.959524 1.0
-23.533993 7.169872 7.575202 4.0
-15.805678 10.943031 -4.493648 3.0
-15.85225 13.189751 4.6761 3.0
23.989441 12.26656 38.599674 3.0
10.032804 8.44952 37.847076 3.0
-25.347147 3.725667 21.20965 4.0
25.0184 9.968039 40.765594 3.0
-24.695663 9.231764 -29.238211 2.0
-17.51107 13.95917 1.88643 3.0
-29.226414 -5.794458 38.004509 4.0
-35.202782 -11.403278 -12.502515 2.0
-28.976927 -4.095117 36.142059 4.0
-24.047897 3.961288 14.621913 4.0
-20.842751 6.535224 -1.176025 1.0
-24.566137 2.641458 19.137491 4.0
-23.234432 12.698784 -19.764799 1.0
-21.535233 16.990366 -46.361584 1.0
-5.099162 9.619038 18.412413 3.0
-21.427349 -3.16705 23.191351 4.0
14.565084 17.624268 34.565426 3.0
-20.373524 10.707325 -15.57235 1.0
-21.491991 17.04405 -47.134892 1.0
-27.561649 -11.508325 41.457748 4.0
-22.598999 16.694149 -62.055149 1.0
-22.679388 8.665837 7.537525 4.0
-20.766552 6.419595 -28.137575 2.0
-29.826927 -0.842422 33.854717 4.0
-22.528315 16.356699 -40.782017 1.0
-22.966064 8.567762 2.59669 0.0
-23.364096 16.035849 -40.100849 1.0
-21.454933 8.963415 -30.565922 2.0
-18.616449 4.61265 9.33735 0.0
34.466099 13.155228 39.363857 3.0
-23.769733 14.443267 -46.046585 1.0
-22.232555 19.439171 -52.365318 1.0
-31.916636 -6.752204 44.296928 4.0
-22.585842 13.230829 -17.28371 1.0
30.628555 13.837309 38.651787 3.0
-31.695965 3.359184 -20.52261 2.0
-22.227551 10.89975 -3.71515 1.0
31.689938 12.46295 39.169449 3.0
-18.434866 12.738774 -10.357998 3.0
-18.262995 14.243165 -0.548955 3.0
31.019068 16.612574 38.286514 3.0
-21.3188 13.403825 -33.732475 1.0
-34.588833 -12.052668 -12.820959 2.0
2.959029 8.960134 31.702402 3.0
-14.98565 12.63505 2.35515 3.0
-35.241718 -15.268639 -11.516995 2.0
-8.8773 11.383801 12.06885 3.0
26.4056 8.3852 42.4636 3.0
-21.083883 18.464201 -51.624317 1.0
-20.81105 13.21585 -32.082451 1.0
-19.167919 7.211769 3.058394 0.0
-23.29715 16.548916 -40.766083 1.0
25.777639 8.582619 42.274803 3.0
-30.569904 -12.376308 45.004082 4.0
-23.16654 5.836887 5.838047 4.0
-33.811485 -11.393348 -13.55058 2.0
25.38496 12.338803 38.596962 3.0
-23.833267 3.414217 13.90705 4.0
-22.211782 3.36336 8.951192 4.0
-27.120136 -7.884395 -16.596012 2.0
-18.594999 6.823633 5.739117 0.0
-20.907751 10.55505 -32.501316 2.0
-21.578907 12.770849 -35.158211 2.0
-16.580322 1.619027 20.843222 0.0
-13.791364 13.014791 6.817649 3.0
17.002153 11.303618 38.238876 3.0
-21.54875 14.08075 -24.160149 1.0
-23.901758 7.402608 -27.903866 2.0
-20.819464 0.118233 16.87965 4.0
-7.78805 8.992787 13.090063 3.0
-18.642035 13.511729 -5.026138 3.0
14.208969 11.342772 37.259888 3.0
-19.2125 6.523235 4.059351 0.0
10.983783 12.784738 34.511726 3.0
-11.27565 13.58455 11.28155 3.0
-29.197935 -3.349072 35.831383 4.0
-18.463583 2.721436 11.406593 4.0
-28.410299 -1.135931 31.419693 4.0
-21.043251 9.32435 -31.24255 2.0
15.212987 9.594054 39.341358 3.0
-21.556923 -1.180547 -20.183733 2.0
-30.198715 -13.700108 45.783821 4.0
37.581535 9.62485 41.124428 3.0
27.458958 9.605882 41.139927 3.0
-18.1507 8.66345 -13.89665 3.0
21.68775 14.06295 37.208549 3.0
-20.523449 10.773075 -17.329151 1.0
14.197908 18.385071 34.413055 3.0
-34.799995 -12.403007 51.599918 4.0
-27.329704 -6.302784 34.889774 4.0
-23.23348 2.59819 11.80664 4.0
-15.224776 13.167151 5.400167 3.0
10.990047 13.171404 34.190861 3.0
17.00318 10.342916 39.270157 3.0
-24.199781 5.429637 15.57563 4.0
-34.0177 -9.620865 49.905941 4.0
-17.36554 2.630156 16.264954 0.0
-36.859318 -7.365883 -12.901616 2.0
-22.321251 14.22675 -46.334549 1.0
-18.68445 12.45965 -14.3386 3.0
-13.38335 6.83415 3.24045 3.0
-35.609051 -12.700918 54.394341 4.0
-38.420708 -18.424719 57.14497 4.0
-20.10605 2.683425 -23.132704 2.0
29.191809 9.964488 40.741188 3.0
-24.044302 15.24594 -42.917843 1.0
-17.699963 8.601232 -12.789537 3.0
-23.548668 1.280467 15.25425 4.0
-14.58305 11.19715 -1.52885 3.0
-32.036293 3.000777 -20.182711 2.0
28.568857 9.683659 40.855541 3.0
-22.106649 16.22275 -58.595249 1.0
-22.96287 16.661011 -42.868 1.0
-25.441586 -0.230375 23.950121 4.0
-24.604872 14.198012 -34.099522 2.0
-20.862825 7.729075 -30.0769 2.0
27.812674 17.691376 37.845173 3.0
33.378883 11.664096 39.763802 3.0
-20.800678 11.100975 -6.108844 1.0
25.425348 11.440651 39.092884 3.0
-34.432739 -16.491951 51.67881 4.0
19.699593 13.643085 37.043709 3.0
-23.162561 8.486138 11.070041 4.0
-24.393356 6.154964 17.309202 4.0
-21.091593 17.600183 -58.603035 1.0
35.237648 10.792225 40.187973 3.0
6.47462 10.322384 33.770573 3.0
-21.471344 14.13232 -39.470287 1.0
-21.796562 6.873387 -27.772474 2.0
-3.353439 14.13295 21.875206 3.0
-15.990356 9.241148 -7.834446 3.0
24.003265 11.766978 38.999874 3.0
-28.471462 9.025263 -24.273586 2.0
26.400076 13.417898 37.932598 3.0
-20.433807 10.287075 1.891683 0.0
-21.215908 13.490797 -13.123848 3.0
7.512493 16.622778 31.358805 3.0
-18.344995 12.839478 -7.557921 3.0
-15.840365 12.844701 1.260642 3.0
20.693451 19.327751 36.05085 3.0
1.13235 17.594849 26.897774 3.0
-24.992952 -8.56377 34.820156 4.0
-18.069675 13.736073 -2.217107 3.0
-24.012917 7.87105 -28.921583 2.0
9.010141 9.930479 35.839733 3.0
-21.200703 10.031006 4.061291 0.0
-24.011572 15.55619 -49.148304 1.0
-21.91445 7.436074 -5.108104 1.0
-36.09063 -13.55106 54.765808 4.0
-17.618999 5.127194 9.650362 0.0
-25.450287 -4.452467 29.595039 4.0
-13.77145 10.320049 2.0748 3.0
-27.781937 3.020245 25.407415 4.0
-10.64855 6.60245 6.89205 3.0
-27.656282 -1.47445 30.053083 4.0
3.647764 15.182559 28.836943 3.0
-23.16605 14.759951 -34.700451 1.0
-23.56391 1.223917 15.961726 4.0
-21.282833 12.5043 -29.584 1.0
-23.915943 16.984814 -50.954338 1.0
-22.816713 9.575736 -2.63989 1.0
19.386763 17.396482 35.82423 3.0
21.168999 11.24765 39.235703 3.0
-23.358711 13.552938 -42.210346 1.0
-22.886692 7.533532 -28.121342 2.0
19.61235 14.04215 36.39135 3.0
-30.199186 -1.571542 35.904053 4.0
37.585358 10.6792 40.141033 3.0
-22.219728 -1.220295 -20.230261 2.0
-17.665949 2.269251 14.185473 4.0
-20.373894 1.576755 -22.146776 2.0
-31.380989 -8.594955 43.883171 4.0
-23.997549 6.91385 17.648451 4.0
-23.340683 15.296849 -53.094715 1.0
22.602404 8.543358 42.150295 3.0
12.030293 15.642423 33.887924 3.0
-10.327042 14.143753 12.85289 3.0
-6.94745 16.484419 19.54484 3.0
-24.592659 15.253806 -34.825165 2.0
22.595615 14.071562 37.211063 3.0
-23.36865 18.571051 -52.916649 1.0
-21.160851 14.36915 -10.26455 3.0
-19.8025 3.066852 9.283556 4.0
-22.706949 14.324065 -29.921423 1.0
-23.808102 14.6533 -49.497353 1.0
34.42688 10.981986 40.139664 3.0
-19.651129 10.328673 -9.954783 1.0
-23.83585 7.94875 13.99625 4.0
-22.975042 13.09888 -28.15856 1.0
-21.134449 13.603188 -23.334248 1.0
-22.448017 10.056917 -16.295208 1.0
-25.72427 -3.971162 29.210449 4.0
-24.051744 4.72551 13.82121 4.0
-16.297232 11.986441 -6.495584 3.0
-0.279875 13.3906 24.939575 3.0
-7.62697 13.384331 16.081472 3.0
-26.40486 -6.450018 -17.424925 2.0
-23.247082 13.768547 -43.168148 1.0
-24.852627 5.496506 19.553917 4.0
-24.612162 1.951937 19.783604 4.0
-29.109301 3.398933 -21.805483 2.0
-20.813255 12.461302 -26.070728 1.0
31.000519 8.614636 42.227345 3.0
-21.199129 -4.017732 25.015274 4.0
-23.235537 17.286253 -48.446712 1.0
-22.962639 14.666537 -48.414806 1.0
-21.19235 0.854478 -21.547556 2.0
-6.446463 9.211453 15.569089 3.0
-29.613226 6.089695 -22.668283 2.0
-21.465111 16.227779 -47.733604 1.0
8.583777 8.578642 36.649799 3.0
-25.694149 -2.81395 26.516251 4.0
-15.60607 10.685396 -3.700677 3.0
-28.7873 -7.6538 -16.75415 2.0
5.70711 17.017704 30.014009 3.0
-20.463644 13.190028 -21.862045 1.0
-26.651812 -5.73845 33.151535 4.0
-23.89118 14.837448 -47.409931 1.0
-19.288488 13.211313 -8.584194 3.0
-22.857311 10.316337 -8.281664 1.0
-5.868366 15.539723 19.884974 3.0
-19.431486 7.544705 -2.561993 1.0
-24.366245 0.16361 -21.478397 2.0
29.162619 13.125519 38.633118 3.0
-18.335768 0.862127 16.285303 4.0
-2.183157 12.011638 23.244698 3.0
-22.516321 10.644401 -17.978228 1.0
-20.424843 12.423128 -23.277437 1.0
1.43075 12.4789 27.209949 3.0
-29.34523 -10.741231 42.47477 4.0
-19.371983 9.634192 -16.31616 1.0
-18.375801 7.83015 3.34165 0.0
33.003811 12.430236 39.409393 3.0
-22.951771 14.83846 -49.217159 1.0
-16.457481 3.325366 17.406397 0.0
22.918095 13.782312 37.465965 3.0
-24.061489 10.949758 -32.064369 2.0
-18.915352 8.1139 -1.604675 1.0
-5.504084 8.495479 16.66716 3.0
-24.09399 -7.31192 32.014519 4.0
-22.148899 9.0297 -30.1029 2.0
-25.61463 1.298671 23.047653 4.0
15.597809 12.752426 36.548653 3.0
-25.61187 0.494388 23.639565 4.0
19.015457 10.046513 40.151657 3.0
-22.665951 8.832701 11.2507 4.0
-16.956192 12.046366 -8.636652 3.0
-19.491875 9.499226 -2.622775 1.0
-29.49358 -0.080117 31.702478 4.0
-20.839254 11.258082 -7.562159 1.0
-21.46311 17.306135 -57.610165 1.0
-32.038979 -6.139073 44.253094 4.0
-20.494837 5.716714 -27.083832 2.0
-23.702967 13.834984 -41.147228 1.0
14.178851 12.433608 36.282539 3.0
8.065549 11.255951 33.577045 3.0
-14.807356 12.281782 -0.217315 3.0
-24.81769 4.714268 19.357132 4.0
-22.649662 16.596371 -61.492577 1.0
-21.292328 8.161573 -29.960588 2.0
-17.940201 0.29245 17.13855 4.0
-0.57895 8.14765 27.643749 3.0
-21.616684 9.696383 -20.413982 1.0
-29.925146 -9.241817 41.87775 4.0
9.226352 9.601159 36.202572 3.0
-28.117718 -7.168912 37.02441 4.0
-20.476587 3.042188 9.299979 4.0
-19.061357 2.27271 11.733423 4.0
-28.629765 -11.781313 42.792881 4.0
-21.871651 13.7537 -23.294899 1.0
-22.715479 4.756201 5.401287 4.0
-35.645302 -11.360399 -12.182692 2.0
-28.189646 -9.992241 40.397945 4.0
-23.333775 18.719225 -54.000526 1.0
-23.594433 8.611158 -29.578327 2.0
-18.779043 8.110887 6.029796 0.0
-24.642649 7.91845 -29.064484 2.0
-21.194675 13.526476 -20.462276 1.0
33.826393 16.202822 38.724884 3.0
-32.485767 -13.270911 -13.255651 2.0
-36.553364 -8.14917 -12.710854 2.0
-18.688074 12.832345 -9.241123 3.0
-34.856544 -4.014369 -16.016012 2.0
-27.528889 -7.935333 37.215698 4.0
18.40345 13.99405 36.159851 3.0
-28.714062 -6.517663 37.338326 4.0
-32.976353 -10.999331 47.459949 4.0
24.986118 18.321442 37.072929 3.0
26.355032 13.870206 37.753704 3.0
-22.984121 8.56209 1.942868 0.0
-22.926374 9.89285 -31.078939 2.0
-32.345325 -14.075541 -12.718688 2.0
28.207407 12.756877 38.587933 3.0
-23.940062 4.363389 13.506801 4.0
10.296871 19.416759 33.025757 3.0
-25.818617 -8.718166 36.070366 4.0
0.830425 18.000923 26.764324 3.0
23.584879 8.967705 41.805767 3.0
-18.475849 2.23095 13.82745 4.0
-23.451874 18.001476 -53.540901 1.0
-23.737339 -3.11345 25.384729 4.0
-33.519669 -14.569019 49.443237 4.0
21.210625 13.92175 36.681473 3.0
-3.551033 7.6067 20.128441 3.0
17.97674 16.621429 35.644279 3.0
-20.087851 5.765617 1.880117 0.0
-27.56045 -3.360801 31.994434 4.0
-20.139185 13.116241 -17.03314 3.0
-29.758551 6.69755 -22.94445 2.0
-19.2299 9.1475 -0.0592 1.0
-29.668245 -2.275971 35.787014 4.0
23.991516 10.076086 40.482906 3.0
31.655668 14.531883 38.602108 3.0
-20.816198 8.27568 -7.533063 1.0
-3.47284 15.18668 22.35392 3.0
-24.017242 5.845949 13.831502 4.0
-18.657671 7.553007 0.613125 0.0
-33.463531 -5.033251 -16.6229 2.0
-21.202108 10.941038 -4.448734 1.0
-25.20785 14.87355 -33.009151 2.0
-22.628641 9.261909 -8.220676 1.0
-25.969612 2.002374 23.381622 4.0
13.110717 19.704016 33.946316 3.0
-20.824087 7.926191 -5.798828 1.0
-27.74135 10.94925 -27.19195 2.0
-18.961084 2.588188 11.388654 4.0
-20.557371 13.190681 -26.071337 1.0
-20.835709 4.476094 5.168964 4.0
-18.242748 3.28175 12.62745 4.0
-29.975199 -10.406919 42.860802 4.0
-18.651913 3.285188 11.399588 4.0
-21.42725 12.20485 -30.017151 1.0
7.519954 10.696767 34.133366 3.0
-21.839188 8.082649 -7.206438 1.0
0.099247 16.607386 26.114296 3.0
18.291471 13.519565 36.748707 3.0
-18.38505 12.04115 -15.02755 3.0
-23.008347 5.783462 5.093247 4.0
-24.01008 15.179141 -41.479752 1.0
-31.596079 -0.85099 -18.980091 2.0
-2.367275 7.2211 23.050175 3.0
-25.061298 2.603154 20.819317 4.0
-9.024644 7.442481 9.263631 3.0
-9.719091 10.586876 10.70195 3.0
-22.573265 20.158743 -50.140839 1.0
-22.647985 10.999564 -16.59428 1.0
-24.016617 15.566498 -42.55265 1.0
-29.231348 -8.845758 -16.192373 2.0
-20.023149 9.87425 0.46975 1.0
-23.238428 3.991658 9.948379 4.0
-19.495409 11.019175 -33.775696 2.0
-28.138159 -8.916721 39.066555 4.0
16.339748 12.2052 36.823647 3.0
-15.541469 12.525879 0.538039 3.0
-26.150951 12.2067 -30.022301 2.0
-23.97332 14.516903 -37.289902 1.0
19.358826 9.262525 40.815716 3.0
-19.095379 -0.895705 19.398415 4.0
-35.306271 -14.61541 51.970989 4.0
-27.057949 11.990499 -29.514 2.0
-16.861349 12.63925 -9.24045 3.0
-21.259293 19.275785 -57.191059 1.0
-22.227762 13.536175 -39.779896 1.0
-26.904585 -6.214292 34.095421 4.0
-28.554951 -14.05045 44.982651 4.0
-19.827387 10.540815 -1.979638 1.0
-15.956623 13.803654 7.171627 3.0
-23.97385 13.63455 -42.354351 1.0
-20.60895 12.74605 -28.87705 1.0
-21.494741 16.233116 -44.646267 1.0
-35.899467 -14.871989 52.995983 4.0
-26.415848 -3.351543 -19.426386 2.0
-23.840143 14.800891 -48.094055 1.0
-13.812996 9.622253 1.215527 3.0
-22.809937 5.829764 4.041969 4.0
-23.844749 19.067051 -60.76585 1.0
-28.802725 -1.196175 32.414665 4.0
-29.575584 -10.402406 -15.335139 2.0
31.387625 10.019141 40.531082 3.0
-20.492483 14.122216 -28.938349 1.0
-36.142532 -5.41515 -14.478517 2.0
-22.598923 16.205267 -39.405273 1.0
-17.677496 2.991432 12.81726 0.0
-30.213886 -10.227625 -15.403663 2.0
-0.779802 9.289379 27.053442 3.0
-31.012049 -13.079542 -13.42339 2.0
34.112732 15.215096 38.800137 3.0
-31.16255 -11.95835 45.461948 4.0
-21.002949 13.5803 -11.48425 3.0
-33.000813 -11.002554 -14.068672 2.0
-15.559545 12.440515 -0.200337 3.0
-23.75506 14.146904 -43.650421 1.0
-24.98963 -1.993298 -20.228556 2.0
4.396147 8.16897 33.783577 3.0
-24.947517 7.206325 -28.068901 2.0
-29.251154 -6.15973 38.338524 4.0
21.90855 12.52815 37.729549 3.0
-27.388187 -4.751086 32.744366 4.0
-22.905251 19.21925 -52.26125 1.0
-21.55349 10.79186 -3.313539 1.0
10.659792 13.778343 33.694237 3.0
-16.212315 12.446631 -3.023128 3.0
-20.79495 -5.85125 28.098249 4.0
-22.238518 6.769245 -1.909639 1.0
-22.528837 -7.52645 30.739929 4.0
-34.492451 -11.59185 54.251049 4.0
-5.757642 7.519582 14.841383 3.0
-21.551151 2.966388 9.650362 4.0
-22.262659 16.357363 -56.842255 1.0
-27.447348 -2.541929 -19.776775 2.0
1.918517 16.16641 27.556101 3.0
-11.052055 14.526232 12.453594 3.0
-13.57198 11.046906 1.573249 3.0
-30.489569 -9.002815 42.317448 4.0
-24.563831 -8.171245 33.842033 4.0
23.244354 13.123814 37.909195 3.0
-16.999369 13.79329 2.610121 3.0
-18.63385 8.67475 -13.96015 1.0
-25.092733 5.396045 20.436523 4.0
6.810311 13.777493 31.319122 3.0
-20.174948 4.845073 4.27646 0.0
-26.827082 -9.252319 -15.611319 2.0
-35.900558 -4.064641 -14.921108 2.0
14.237 13.352279 35.783974 3.0
-17.722013 8.921302 -12.440084 3.0
-17.595472 1.921939 15.645805 0.0
-19.530287 13.02375 -16.990974 3.0
-28.793449 2.19765 27.21055 4.0
-23.54631 11.773636 -34.808174 2.0
-32.788441 -15.242538 49.109428 4.0
26.381762 14.574646 37.596645 3.0
-27.782566 -7.170359 36.575603 4.0
-19.843266 8.589311 -31.737114 2.0
-5.57905 15.84795 20.539551 3.0
-26.466091 5.752711 -24.707748 2.0
-20.30225 11.43145 -19.54735 1.0
-19.810961 4.773735 4.771686 0.0
-19.379532 2.524872 10.988609 4.0
-27.855743 4.377658 -22.929474 2.0
-26.796326 -2.631016 -19.80891 2.0
-3.929 17.1036 23.233799 3.0
-32.519241 -12.819186 47.368214 4.0
0.86776 10.292575 28.513206 3.0
-23.5105 8.217708 12.824457 4.0
-21.180058 15.884482 -43.204182 1.0
-20.758049 9.1561 -10.62405 1.0
-18.407303 12.792087 -12.053689 3.0
-18.633675 6.416167 2.561658 0.0
-30.263651 -14.54955 47.160049 4.0
28.033649 16.05765 37.814449 3.0
12.690525 17.045975 33.943748 3.0
-36.414749 -11.02035 -11.61585 2.0
-22.239866 10.965219 -22.594709 1.0
-26.484249 3.21745 -23.38105 2.0
-34.696365 -11.1042 52.610344 4.0
-21.26545 10.67725 -18.925751 1.0
-23.530727 19.318249 -61.657188 1.0
-26.827761 -12.420915 41.778053 4.0
-33.128349 0.67595 -18.544649 2.0
-6.681875 8.628201 14.464849 3.0
-17.01355 12.60395 -6.90225 3.0
-21.198456 4.230914 6.020104 4.0
-19.832861 2.378524 11.081899 4.0
-25.106726 10.928974 -30.0923 2.0
-32.632515 -11.288925 46.894936 4.0
8.994101 13.36535 32.32608 3.0
-27.396276 -5.371124 33.810421 4.0
-23.825304 18.840511 -56.488525 1.0
-26.547451 7.58198 -25.531891 2.0
17.316872 15.958463 35.627899 3.0
-22.967224 12.437225 -34.795799 2.0
-21.54475 9.94615 -19.57295 1.0
-27.107683 9.961852 -26.76857 2.0
-24.750282 -9.47215 -15.154683 2.0
-32.747543 -15.433078 -11.44944 2.0
-9.00965 10.694862 12.060937 3.0
-25.512449 -10.48955 -14.33135 2.0
6.505249 13.12236 30.943224 3.0
-23.915607 16.60228 -53.7332 1.0
-28.572891 0.136512 29.90217 4.0
35.535564 13.477697 39.373688 3.0
-10.350644 16.238546 14.896964 3.0
-22.543549 12.409 -32.076199 2.0
-11.54245 7.49015 6.43525 3.0
-20.200018 10.3215 0.77995 0.0
-21.875866 14.212259 -26.757074 1.0
-36.344032 -7.31793 -13.27123 2.0
-22.345636 7.531972 -3.351466 1.0
1.878817 11.471416 28.517218 3.0
11.878951 12.265931 35.359798 3.0
-20.492619 13.864906 -25.382126 1.0
15.4642 12.0292 36.71685 3.0
26.109482 12.773517 37.97485 3.0
-20.0865 1.431 13.4668 4.0
22.60618 9.246975 41.46907 3.0
-12.042877 12.21497 6.794668 3.0
-24.203447 4.410853 15.594661 4.0
-16.823734 2.253317 18.784035 0.0
-21.169825 13.748195 -23.999622 1.0
-34.832966 -10.362743 -13.230972 2.0
-23.80135 13.34395 -35.431549 2.0
-22.35475 -1.43585 20.410151 4.0
9.275381 15.206934 32.464775 3.0
2.8689 13.0804 27.93745 3.0
-34.19762 -11.013481 50.180061 4.0
-23.924225 7.197653 14.581271 4.0
-24.55802 -0.095241 21.242813 4.0
17.693146 18.715212 35.334148 3.0
-22.151051 14.01765 -13.43835 3.0
-22.095001 10.2991 -0.2099 1.0
-23.76815 10.697599 -33.075348 2.0
18.379959 17.038155 35.676846 3.0
-11.690767 13.520071 10.579483 3.0
5.008219 12.393225 30.530767 3.0
0.087394 11.772456 26.442629 3.0
-24.980373 -6.043825 -17.5604 2.0
-27.83399 -8.530626 -16.317064 2.0
-18.437176 2.35833 12.157681 4.0
-31.378748 -13.866304 -12.838913 2.0
-0.830538 12.833113 24.625862 3.0
-13.189496 11.014174 2.645441 3.0
11.009973 11.6632 35.429317 3.0
-2.990812 14.56358 22.598959 3.0
5.900028 10.627254 32.967461 3.0
-14.853503 11.720582 -2.237899 3.0
-20.731342 10.229321 -15.494408 1.0
19.771416 11.766216 38.032551 3.0
-18.593849 2.6696 13.36455 4.0
-21.175922 12.056506 -25.707056 1.0
-23.853666 5.793088 11.691568 4.0
-21.837242 14.514717 -42.739738 1.0
-12.546249 11.57045 3.32625 3.0
-1.531861 10.943415 24.699438 3.0
-9.961113 14.527709 13.826013 3.0
-24.027048 2.938375 16.231176 4.0
17.292351 12.343775 37.002998 3.0
-21.611952 -6.868883 29.864717 4.0
-15.172574 12.52093 1.566087 3.0
-23.562572 3.391024 12.817436 4.0
-19.626051 9.36385 -0.71125 1.0
-21.197119 11.585697 -10.014491 1.0
-22.711 1.46285 14.819 4.0
-21.111217 14.244064 -27.761801 1.0
-15.32135 14.02595 7.92785 3.0
-23.79455 12.05475 -33.362751 2.0
-20.377283 7.275297 -30.239477 2.0
-26.909746 -3.664303 30.976107 4.0
-21.267908 14.600783 -40.809525 1.0
-23.596346 0.478765 -21.603279 2.0
-21.885155 9.620527 4.792195 0.0
-25.677345 -6.087162 32.042423 4.0
-34.945992 -14.205975 51.474068 4.0
-25.40085 -6.2635 -17.448551 2.0
-15.589805 9.597549 -5.393663 3.0
-0.64405 11.503751 25.316317 3.0
12.800423 10.650731 37.246788 3.0
-29.73595 -5.17195 -18.19845 2.0
-21.822449 13.065117 -36.249821 1.0
-23.29085 16.991158 -44.647717 1.0
38.730801 11.35075 39.817051 3.0
-19.410353 -2.626573 22.54813 4.0
-30.603216 -12.801511 45.38081 4.0
-23.60516 18.00275 -56.910576 1.0
33.372421 15.240687 38.706757 3.0
-17.327799 3.03015 15.595294 0.0
-8.954302 8.201503 10.039999 3.0
-7.681092 7.752208 11.382601 3.0
26.536751 18.770149 37.886551 3.0
32.399479 9.353907 41.207832 3.0
-21.297615 -2.42265 22.151016 4.0
-22.197002 10.382867 -2.612 1.0
-23.708847 19.160515 -60.030766 1.0
-33.92691 -13.8008 49.810295 4.0
17.016108 10.753324 38.655598 3.0
19.480883 11.248452 38.954861 3.0
-24.040573 -6.195798 30.18634 4.0
33.820068 13.39356 39.239243 3.0
5.60475 12.75675 30.762951 3.0
21.244913 14.829969 36.579468 3.0
-21.310316 14.915883 -33.388218 1.0
-28.88249 -12.739006 43.933624 4.0
-21.530275 1.576463 -21.997423 2.0
8.841879 17.976154 32.147774 3.0
-14.814567 12.3299 -2.229683 3.0
-10.643935 15.623688 14.162682 3.0
-21.551723 16.663074 -46.697449 1.0
-22.194553 19.418261 -53.989693 1.0
-22.57369 -6.093372 28.902405 4.0
-21.780849 16.41345 -59.335854 1.0
-23.549599 -5.91955 29.401649 4.0
12.322719 8.615693 38.774765 3.0
-3.336149 6.832697 20.397791 3.0
-14.218979 8.225684 -3.598484 3.0
-24.249823 6.158812 16.264896 4.0
-20.824459 5.113539 3.310929 0.0
-17.881254 6.450786 6.815478 0.0
26.769594 10.310998 40.430046 3.0
-2.612448 10.33895 22.879812 3.0
-11.314367 15.218658 13.052642 3.0
-9.979723 16.586843 15.607621 3.0
15.953418 16.966202 35.126987 3.0
-27.18119 1.215976 -21.945339 2.0
-24.780499 1.124 21.018101 4.0
-12.80125 14.848295 11.052952 3.0
-22.981894 6.506628 3.374228 4.0
-25.139847 1.198196 21.984407 4.0
-40.84116 -19.04628 60.385838 4.0
-26.286388 -0.71293 26.135571 4.0
-23.606394 17.650518 -54.768078 1.0
-19.329786 5.707383 2.984848 0.0
-22.628141 11.418824 -18.774582 1.0
-35.876324 -10.671206 -12.188194 2.0
-22.549475 11.430081 -22.553051 1.0
-23.588242 -9.272543 34.120884 4.0
-22.656052 9.201833 -7.212663 1.0
-21.207842 14.873507 -40.411442 1.0
-12.943041 8.576475 3.650034 3.0
15.9366 9.170708 39.972336 3.0
-29.544533 4.691917 -22.187334 2.0
7.495767 8.2238 36.001415 3.0
-17.364672 4.679552 12.404173 0.0
-23.270655 3.685865 -23.962078 2.0
-21.573032 17.005346 -53.335533 1.0
-22.59819 13.016273 -19.030636 1.0
-17.388155 3.402214 14.617872 0.0
-21.192011 13.528394 -22.635036 1.0
2.99517 9.626639 31.337076 3.0
-22.492601 11.000048 -20.797518 1.0
-16.35285 12.004775 -6.960125 3.0
-23.947525 1.960064 17.033113 4.0
-19.1549 4.522117 8.00075 0.0
-22.515797 11.394797 -23.579779 1.0
-21.574959 10.615957 -1.931825 1.0
-22.414816 9.5846 -13.8072 1.0
-21.035784 13.030666 -29.271133 1.0
-6.97995 7.81625 12.33745 3.0
-35.904152 -16.29285 53.730499 4.0
-31.024963 5.679695 -21.613947 2.0
26.365606 15.477951 37.434322 3.0
-20.312662 3.479287 -23.862686 2.0
4.054627 7.821894 33.74918 3.0
0.93428 7.53868 30.5357 3.0
-32.735283 -7.545111 46.34729 4.0
-25.383055 -8.718883 -15.707911 2.0
-20.105551 4.887883 -26.025692 2.0
-25.596127 13.448774 -31.235813 2.0
-22.343758 12.451682 -18.770414 1.0
-23.512268 -3.5052 25.892784 4.0
-1.628737 8.213705 25.454891 3.0
-28.138821 -11.701446 42.217216 4.0
-18.039951 12.360127 -12.424869 3.0
35.566944 12.783885 39.516628 3.0
-20.009947 5.355808 4.69589 0.0
34.176277 14.47408 38.96006 3.0
13.18361 13.13589 34.96669 3.0
0.56591 9.214596 28.853674 3.0
-11.6705 14.9608 12.3273 3.0
-22.44825 17.303749 -43.865349 1.0
26.127623 16.977709 37.319378 3.0
17.403534 16.59314 35.541538 3.0
-18.84215 8.71585 -0.60565 1.0
10.618878 17.98061 33.028954 3.0
-21.227303 -6.733078 28.876719 4.0
-24.022448 -7.863249 32.80785 4.0
-29.200556 -4.01389 36.573864 4.0
-29.943525 -3.015567 37.571621 4.0
20.514101 13.700979 37.108192 3.0
3.32135 15.90055 28.260851 3.0
-24.353487 -3.611944 26.826019 4.0
-25.456657 5.756996 -25.800676 2.0
-18.779984 10.686691 -14.167675 3.0
-25.75466 4.40462 -24.606218 2.0
-21.58145 4.7733 4.4292 4.0
19.691708 10.628129 39.605186 3.0
-23.825768 4.096895 12.762288 4.0
-22.21385 13.62855 -41.69125 1.0
-22.200888 14.810206 -30.999411 1.0
-27.140635 0.600515 -21.596716 2.0
-27.23563 -2.356975 30.211519 4.0
-20.01705 10.14015 -17.786751 1.0
-22.627701 15.382417 -35.709415 1.0
-30.971092 4.70799 -21.487877 2.0
-20.79155 13.835754 -27.813889 1.0
-29.491507 -7.550176 39.72728 4.0
-20.785925 18.401855 -57.190548 1.0
-11.647751 11.093 6.6417 3.0
-23.149849 14.1059 -32.382248 1.0
19.784761 17.669481 35.874249 3.0
-21.58045 14.41385 -25.760851 1.0
-3.29705 12.299701 21.361425 3.0
-28.593786 -11.711095 -14.176839 2.0
-16.877651 9.64282 -9.385039 3.0
24.34145 13.52937 37.343311 3.0
9.632057 12.403506 34.077812 3.0
-24.229542 0.543174 19.361784 4.0
-18.537849 8.71285 -14.85935 1.0
-20.177032 10.701887 -18.769718 1.0
-38.980236 -16.992054 57.897518 4.0
-23.342312 18.416512 -51.598198 1.0
-27.402872 -6.121886 -17.756306 2.0
