# .PCD v0.7 - Point Cloud Data file format
VERSION 0.7
FIELDS x y z label
SIZE 4 4 4 4
TYPE F F F U
COUNT 1 1 1 1
WIDTH 1432
HEIGHT 1
VIEWPOINT 0 0 0 1 0 0 0
POINTS 1432
DATA ascii
-18.495724 6.92095 0.501275 0.0
-37.084064 -14.647466 -25.722549 1.0
-21.631277 12.574448 -19.393145 3.0
-22.4753 8.3691 -18.38875 0.0
-32.319469 -19.086821 60.103298 0.0
-21.341251 8.81775 -21.2299 0.0
-36.857899 -6.144338 -29.129736 1.0
-22.731939 10.3085 -23.03651 4.0
-21.944201 3.0244 -38.315849 1.0
22.340857 34.155441 28.198969 3.0
-0.140367 17.630867 17.054184 3.0
-17.739 8.0111 12.16925 2.0
17.109713 24.275724 32.376087 3.0
-20.400097 -3.96399 28.355768 0.0
-18.874701 3.644433 8.91775 0.0
40.12434 31.12735 31.408596 3.0
-39.954453 -30.124001 72.886848 0.0
-21.723 -0.7338 21.545849 0.0
-22.899633 8.125867 1.30235 0.0
-22.361374 6.884125 -4.614875 0.0
-27.31918 9.161214 -42.290123 1.0
-21.850201 10.0097 -29.272049 4.0
-15.640668 12.121566 -9.643581 3.0
-33.148865 2.709133 -34.726482 1.0
-26.944599 -6.1447 42.801048 0.0
-27.7404 -11.918633 47.145248 0.0
-30.399601 0.855437 -35.415291 1.0
-18.9252 -4.76835 29.326225 0.0
-22.106712 11.089563 -41.412991 4.0
32.1479 28.320801 33.587448 3.0
-22.479383 8.620501 -45.67791 1.0
-22.089455 10.80509 -14.895771 0.0
-6.123517 13.064629 6.6467 3.0
-24.908379 4.426114 -40.067589 1.0
-22.058706 12.400497 -26.888889 4.0
29.736084 32.692043 29.469835 3.0
32.130608 29.396717 32.061317 3.0
25.2388 26.024799 34.802052 3.0
-19.088301 6.0248 1.92305 0.0
14.1489 25.05315 28.925751 3.0
-16.854067 0.627267 21.014984 0.0
-12.930867 15.923533 0.272983 3.0
-30.387413 -11.696306 50.906021 0.0
-34.127548 -23.90975 63.257072 0.0
-22.9203 8.306 10.28155 0.0
-20.053198 11.08886 -22.733049 4.0
-33.877975 -8.931381 -29.833755 1.0
-20.102442 9.049829 17.681166 2.0
-20.309551 10.2604 -6.36815 0.0
-3.263357 19.077658 13.854035 3.0
-19.969601 10.4165 -3.63925 0.0
-16.7771 5.0454 11.79715 0.0
-20.106676 8.820725 14.383782 2.0
27.921301 30.0751 30.94245 3.0
-26.595665 -4.64956 39.885014 0.0
-32.683914 -11.311538 -28.932175 1.0
-6.602967 14.397087 7.13693 3.0
-1.2721 25.494436 19.30055 3.0
3.9489 18.113701 25.087851 3.0
-22.709183 4.85555 -40.669491 1.0
-21.328699 13.694134 -48.347183 4.0
-22.385201 8.672426 -21.820099 0.0
-23.844376 -10.9475 41.063076 0.0
-23.556801 17.6201 -73.417747 4.0
11.433884 24.667034 27.852066 3.0
-21.791 3.8801 3.72935 0.0
-29.12735 8.67285 -39.081299 1.0
10.5094 22.05825 28.72945 3.0
-22.85845 15.911633 -61.396881 4.0
-24.9177 7.904 -45.122051 1.0
-24.313648 14.397423 -59.912277 4.0
-20.139999 3.8431 6.08705 0.0
-21.0215 9.0598 -17.55245 0.0
17.355713 30.152187 28.469124 3.0
-20.8904 12.372983 -26.377182 4.0
15.145184 27.632071 28.346624 3.0
-13.706379 14.953137 -3.606333 3.0
-22.555599 10.3473 -37.41325 4.0
1.2377 25.245899 20.204651 3.0
-19.090752 -7.1925 33.680817 0.0
-20.975599 4.8517 -41.982948 1.0
-32.144226 -9.720249 -29.9286 1.0
-22.808594 8.412543 -4.137925 0.0
-26.939297 -12.105845 45.897869 0.0
-18.144299 13.735701 -10.8879 3.0
18.2183 34.801899 27.48045 3.0
-20.9757 14.3894 -51.339748 4.0
23.07765 27.952477 31.148174 3.0
-21.389866 6.553416 -8.100516 0.0
-14.983163 13.052637 -8.584612 3.0
-10.851151 11.68155 0.1945 3.0
-23.16736 -1.623694 25.122168 0.0
-22.382524 15.129625 -56.408615 4.0
-12.296583 18.701525 6.618612 3.0
20.117476 34.124077 27.968624 3.0
-30.817551 -13.100849 53.17905 0.0
6.093004 19.373163 26.438547 3.0
43.9338 31.1651 31.62965 3.0
-36.079277 -6.0854 -29.878975 1.0
-16.04855 15.098275 36.390076 2.0
-2.89705 17.438683 13.910851 3.0
-19.461 10.3962 -19.807051 3.0
-1.05565 23.822201 18.50415 3.0
-17.500433 -7.743866 34.651882 0.0
-21.134151 8.965 3.20405 0.0
-21.896301 -8.24025 36.122902 0.0
-25.7453 13.0389 -46.589249 1.0
-0.595133 20.892458 16.479658 3.0
-24.094133 12.505699 -57.089016 4.0
-23.589199 10.8176 -34.630451 4.0
-24.517466 2.6549 21.653849 0.0
-26.340307 8.652962 -42.887157 1.0
-18.876764 7.722267 -2.610317 0.0
-20.919966 12.307934 -38.954395 4.0
-21.4744 8.3481 8.20585 0.0
-16.299475 11.712825 -11.471225 3.0
-26.6768 -3.1102 39.104149 0.0
-32.10474 3.71678 -35.884441 1.0
-36.146004 -3.49435 -30.717899 1.0
-34.151161 -10.693267 -28.838224 1.0
3.0831 22.909 20.523701 3.0
28.818178 31.328611 29.804865 3.0
2.631912 27.37554 21.623363 3.0
-18.5804 11.8341 -16.745251 3.0
-21.06365 4.0213 5.6608 0.0
-22.412901 -0.2444 -35.599251 1.0
-21.896049 17.618282 -68.868027 4.0
-21.104967 3.875667 -39.835335 1.0
-24.847033 3.0842 -38.721218 1.0
-21.885124 -4.44365 29.627251 0.0
-25.858992 -20.302658 50.917801 0.0
-13.9392 10.046 -11.13565 3.0
-22.682699 14.6922 -75.595848 4.0
-33.811634 -19.890135 62.97945 0.0
-12.61095 10.8588 -7.90885 3.0
7.8354 21.9741 26.234449 3.0
-29.722084 -14.617813 52.707787 0.0
-1.659914 22.4974 17.29722 3.0
-4.9526 17.677801 11.124417 3.0
-24.249268 13.452167 -52.913349 4.0
-25.233864 -9.395701 -29.976387 1.0
8.370733 30.585199 24.862665 3.0
-20.376225 13.928521 -14.136238 3.0
-24.974386 4.159186 21.147665 0.0
-13.645317 15.182521 -2.686896 3.0
-9.1953 19.817301 8.81515 3.0
-23.106426 11.663775 -33.945602 4.0
0.17445 15.0952 15.8661 3.0
-27.259691 -10.905354 45.485664 0.0
-27.409475 -10.685625 -29.022774 1.0
-22.924801 13.29905 -62.737549 4.0
-20.561701 12.341384 -22.3284 4.0
-22.691822 9.402891 -13.912201 0.0
7.386263 20.357782 27.386007 3.0
-17.856274 10.140525 -16.916527 3.0
24.713131 27.581539 32.296677 3.0
-21.637604 14.611889 -49.349808 4.0
-5.603175 19.102539 11.107351 3.0
-20.746317 12.888316 -32.711765 4.0
-24.068249 14.373182 -54.70224 4.0
13.906338 26.653801 28.133236 3.0
23.891401 29.156214 30.438423 3.0
-15.627722 11.390433 31.877066 2.0
-16.369976 1.720762 18.636425 0.0
-2.3369 18.957352 15.5228 3.0
-22.9725 -4.0711 28.01255 0.0
35.113152 29.66325 32.397003 3.0
25.7351 29.10215 31.32905 3.0
-23.431 10.4828 -30.637449 4.0
1.2147 21.89065 18.560749 3.0
-17.508924 3.516 12.42305 0.0
-34.85688 -15.12896 -26.146189 1.0
-26.831051 1.02665 28.11875 0.0
27.869499 26.643951 35.409851 3.0
-23.086218 3.571866 11.817048 0.0
-22.160322 11.899975 -23.824274 4.0
-37.841702 -6.9615 -27.906651 1.0
-27.4198 -5.556475 -32.775024 1.0
-11.850076 12.602151 -1.6855 3.0
-23.041327 5.319438 5.131825 0.0
0.89355 26.103527 20.473427 3.0
-6.1585 17.13625 10.077 3.0
10.920898 28.606514 25.895855 3.0
-33.86705 -23.102249 62.694252 0.0
-7.653099 16.320154 7.636161 3.0
-2.69085 21.696949 16.0224 3.0
-27.601181 -6.85777 -31.909317 1.0
-20.295637 -4.675925 29.610975 0.0
30.41419 29.326723 31.85145 3.0
16.7052 27.085201 28.9182 3.0
9.47388 27.111481 25.512251 3.0
-8.928783 12.057484 3.829341 3.0
-27.666401 -24.6663 55.59425 0.0
-20.925371 2.853 -38.615017 1.0
-19.8279 2.3416 11.48635 0.0
-18.644072 0.820984 18.654696 0.0
-21.059099 17.1646 -71.128853 4.0
-35.115761 -28.378433 64.409775 0.0
-23.615673 15.71922 -62.877121 4.0
-3.698375 16.704224 11.886774 3.0
-9.7586 15.7077 4.01505 3.0
-3.064975 25.460012 18.369625 3.0
-36.386856 -30.347565 66.115875 0.0
-19.087433 8.907701 -1.170783 0.0
-16.905899 3.88288 13.35435 0.0
0.9775 18.6777 19.76145 3.0
-20.126867 10.636666 -14.436283 0.0
38.820251 29.10605 33.533401 3.0
-16.070301 13.222651 -12.0567 3.0
-1.2004 20.101826 16.0411 3.0
32.0462 35.860451 29.418701 3.0
-22.10425 -7.5046 34.685101 0.0
14.3001 27.688225 27.8962 3.0
7.3937 23.137434 24.930248 3.0
10.101478 23.629791 27.361891 3.0
-21.750351 16.333801 -66.532051 4.0
26.6285 32.074547 29.533449 3.0
-24.917807 -8.103086 38.594429 0.0
-26.501116 6.4914 -41.080448 1.0
-20.566534 11.7114 -31.06315 4.0
-20.430767 10.011984 -20.102034 0.0
-20.820251 2.951425 8.62915 0.0
-27.599497 7.145296 -40.108204 1.0
-33.327301 0.802667 -34.02285 1.0
4.197175 20.925201 23.079048 3.0
-24.20775 13.07815 -50.629749 4.0
-30.310623 -9.858534 48.414082 0.0
-24.121399 -8.695999 38.0317 0.0
-21.5606 7.1766 -13.12735 0.0
-23.262974 11.09215 -35.854351 4.0
-23.0348 11.9193 -57.948448 4.0
-14.379146 16.807837 1.876366 3.0
-26.140699 -21.915585 51.882713 0.0
5.963625 23.174423 24.260975 3.0
22.2684 28.471216 30.449217 3.0
-12.878574 14.091774 -3.5769 3.0
-22.783199 6.9496 8.99065 0.0
12.666759 22.131048 31.060051 3.0
-25.861172 -6.887615 -31.682138 1.0
30.895901 27.579899 34.533901 3.0
6.506343 26.075958 23.681065 3.0
-21.89838 15.907521 -63.10569 4.0
-26.36797 -8.109426 -30.853819 1.0
-22.926163 5.581957 3.84689 0.0
-11.652731 11.029655 -4.36895 3.0
37.1735 29.133301 33.929649 3.0
-30.387062 -26.636219 59.866989 0.0
-20.803392 11.880301 -35.298058 4.0
28.7778 26.157499 35.691349 3.0
31.284927 29.059299 32.258324 3.0
-27.094 -24.050026 54.631275 0.0
-15.387493 11.907882 33.410309 2.0
-19.043501 6.0253 0.07325 0.0
-0.0825 27.863501 20.36685 3.0
32.980873 30.88975 30.810501 3.0
-22.264549 -2.22125 23.49025 0.0
0.8067 17.8713 18.490749 3.0
-18.814751 5.04235 4.36985 0.0
-18.096359 2.16199 14.428815 0.0
-35.058102 0.8801 -33.20105 1.0
-20.1574 -13.3494 41.01025 0.0
-23.437599 11.2461 -44.717152 4.0
-29.81846 -22.900915 57.406727 0.0
-17.468 7.814 6.6603 0.0
-25.398239 -13.902866 45.407845 0.0
-33.665672 -26.095116 62.652546 0.0
-34.4809 -13.9361 -26.99465 1.0
-19.699425 9.611609 -11.322557 0.0
-17.440781 9.058201 21.263725 2.0
-22.372562 -9.109303 37.328308 0.0
-21.801088 15.107206 -70.152878 4.0
-36.314453 -1.8749 -30.925751 1.0
-23.962234 4.072967 15.047649 0.0
-24.2703 17.0896 -74.771149 4.0
-31.603415 -13.358716 54.842823 0.0
-16.040051 7.6962 21.751801 2.0
-23.326359 1.90348 18.66637 0.0
-24.687679 -2.449014 29.832479 0.0
-37.679874 -13.649354 -25.372881 1.0
-21.597752 10.869425 -33.891876 4.0
-15.8043 4.1971 14.95405 0.0
-22.390854 14.614855 -48.635269 4.0
-23.154402 14.405327 -72.904945 4.0
14.881275 33.298412 27.099651 3.0
-10.424376 21.129023 9.386349 3.0
-18.608826 9.850149 -18.9669 3.0
-17.009001 5.887066 12.293784 2.0
-22.540899 7.3821 -9.05735 0.0
-22.088749 14.4754 -47.735748 4.0
-21.298626 8.5341 -16.0798 0.0
-31.261169 -24.880325 59.824883 0.0
-20.846575 10.596275 -10.655675 0.0
20.3727 24.16465 33.898018 3.0
-23.939056 -5.401959 33.098511 0.0
-23.609781 4.855889 11.672772 0.0
-21.6099 8.9592 -26.952049 4.0
-24.252434 0.153367 24.719614 0.0
-25.245325 12.9023 -48.702724 1.0
7.13665 22.337793 25.64506 3.0
-22.148251 4.116375 5.107275 0.0
-20.487988 11.1187 -28.923466 4.0
29.660233 26.870832 34.836651 3.0
-21.704321 14.890087 -55.60191 4.0
-22.600508 8.61626 2.649722 0.0
-17.383575 -2.17705 25.364124 0.0
-27.8641 -9.10538 -30.33721 1.0
-29.444698 -12.69875 -27.7185 1.0
-23.915424 15.611487 -64.931381 4.0
-20.758801 6.47165 -45.543251 1.0
-23.567123 14.384125 -75.828903 4.0
34.731564 31.697134 30.664713 3.0
-5.165766 13.880033 7.942883 3.0
-21.387501 7.869675 -45.740974 1.0
-23.329901 -4.5462 29.21785 0.0
-21.904409 -5.204125 31.095432 0.0
-23.080601 12.7158 -35.32135 4.0
-22.916628 8.097344 0.383917 0.0
-24.32369 14.630426 -65.458344 4.0
-18.860832 -9.07445 36.57663 0.0
-20.404259 -3.316191 27.131868 0.0
-18.126499 13.992 32.286251 2.0
-21.1327 1.822733 14.428695 0.0
-22.5923 6.7451 -6.75405 0.0
43.585361 33.35358 29.870323 3.0
-22.598314 11.133478 -22.384098 4.0
-20.962234 11.624227 -36.617176 4.0
-22.804457 10.637344 -24.886274 4.0
-20.3713 0.1594 18.59255 0.0
-21.822151 3.1084 6.928775 0.0
-19.146275 8.838425 5.3586 0.0
-21.083036 1.680512 -37.356911 1.0
24.52713 29.733429 30.118038 3.0
36.188599 27.94445 34.332901 3.0
-21.727619 9.743449 -2.69475 0.0
2.685967 28.500999 21.738768 3.0
-28.220436 8.638983 -40.370136 1.0
-16.819868 10.717533 -13.952418 3.0
-20.660532 8.795583 9.940067 2.0
-23.5166 12.8984 -39.335949 4.0
-18.085949 -3.154767 26.062117 0.0
-23.311039 11.49088 -38.48671 4.0
-18.112034 10.599733 26.036232 2.0
-22.9076 17.501101 -70.342155 4.0
-28.0315 -14.6574 49.461151 0.0
-24.19915 14.882767 -68.899544 4.0
0.324972 16.065996 16.598503 3.0
-23.412413 12.410521 -41.077171 4.0
7.87785 24.437401 24.559299 3.0
-22.7658 10.1934 -34.169048 4.0
6.327729 28.704859 23.35368 3.0
-18.733463 -11.10095 38.620483 0.0
-21.596344 13.90079 -16.40946 3.0
-36.132469 -25.593296 66.602623 0.0
-19.89035 6.8748 -3.882 0.0
-21.376801 6.9957 -10.57515 0.0
-23.539949 -9.352825 38.477901 0.0
-26.4965 11.9041 -45.0905 1.0
-16.495966 -2.319533 25.903519 0.0
-28.068859 -3.945617 -33.854988 1.0
-12.60985 16.466782 1.869 3.0
-24.081963 3.722217 16.400314 0.0
-30.816376 -13.788 53.913948 0.0
-22.290501 8.9496 7.43635 0.0
-13.427249 12.911591 -4.584057 3.0
-30.192699 -13.483 -26.764151 1.0
-28.607801 -5.593168 -32.884346 1.0
-10.4597 13.099031 1.66607 3.0
4.4016 23.3661 21.755951 3.0
40.355957 33.841667 30.186117 3.0
6.75425 27.52795 23.684175 3.0
-32.418701 0.5916 -34.45755 1.0
26.568157 33.863167 28.804716 3.0
-17.396805 9.383309 23.126566 2.0
0.259067 19.104834 18.038816 3.0
-26.61478 5.369159 -40.319653 1.0
-23.069 15.56665 -55.965698 4.0
27.145777 29.320633 31.363344 3.0
-14.195049 16.331535 44.350616 2.0
-24.298254 13.397223 -54.101936 4.0
-22.8559 10.695386 -27.302525 4.0
-16.1348 -0.2653 22.170549 0.0
-23.0172 12.0822 -29.721849 4.0
-27.166126 -5.077325 42.128876 0.0
-22.73785 12.346175 -32.096775 4.0
-7.06637 19.392044 10.553115 3.0
-35.23225 -25.3106 64.86322 0.0
-23.148607 6.403192 3.530356 0.0
4.609753 24.094152 22.424961 3.0
-27.116856 -1.910014 -35.108936 1.0
-24.737972 0.889986 25.111822 0.0
-22.392799 7.9099 -15.14315 0.0
8.9528 20.6001 28.90415 3.0
-17.092949 16.130352 -4.13515 3.0
14.073187 22.410648 31.699223 3.0
-23.0235 8.0135 5.82435 0.0
-20.2008 12.1909 -32.901348 4.0
-17.900068 13.143738 -14.612154 3.0
-22.9328 14.567801 -74.504501 4.0
32.611164 35.085033 29.396353 3.0
-18.271 -8.3921 35.048649 0.0
-27.5462 5.89186 -39.554451 1.0
-22.997801 7.0722 -0.03065 0.0
-37.191399 -26.647751 69.024796 0.0
-22.3515 10.4642 -48.328552 1.0
27.714399 32.450436 29.23255 3.0
-22.929649 12.1842 -53.63245 4.0
16.3057 34.345402 27.26495 3.0
-21.089451 -2.75285 26.132801 0.0
-21.38962 9.886829 -0.907377 0.0
-36.385101 -26.094 70.126846 0.0
-4.637194 24.884443 16.587408 3.0
-23.159637 7.852313 7.833588 0.0
-0.366439 20.393381 17.600462 3.0
-16.0648 14.2563 -7.91885 3.0
-25.92956 -5.62092 38.389927 0.0
-20.871168 16.104788 -75.096916 4.0
-21.896601 10.83405 -35.15715 4.0
-19.3246 -5.574717 30.8645 0.0
-29.115425 -12.612079 50.092766 0.0
14.72595 31.314251 27.18845 3.0
-33.091286 -19.086994 61.85112 0.0
-29.8445 4.8344 -37.389751 1.0
-5.885333 18.538033 9.637982 3.0
-24.366032 -4.080317 31.853634 0.0
33.885986 35.629574 29.384748 3.0
-4.36736 20.693655 13.885136 3.0
3.196361 19.340429 22.868179 3.0
-28.248301 -15.491615 50.517002 0.0
-32.951572 -20.351692 61.41687 0.0
-20.561129 9.036262 6.898117 0.0
-23.150333 5.363529 6.603346 0.0
31.540953 28.496483 32.945984 3.0
-21.863199 15.4163 -72.12075 4.0
38.3978 33.137001 30.76005 3.0
-27.288286 -20.669226 52.934612 0.0
-1.7092 16.018551 13.7458 3.0
0.824925 16.292376 17.72645 3.0
-11.87875 18.038391 5.643975 3.0
-22.296261 15.48246 -60.460552 4.0
-23.1516 10.1057 -25.739849 4.0
-19.721649 8.7036 -11.518101 0.0
-26.804501 -2.6078 35.19685 0.0
2.972 21.863499 21.5769 3.0
5.110887 20.911163 24.603804 3.0
-21.133501 8.8472 5.338987 0.0
-22.209751 16.47995 -64.886505 4.0
-21.384249 13.109933 -51.821651 4.0
-29.717033 3.289867 -36.915913 1.0
20.332649 30.52285 28.8216 3.0
-20.92205 6.48835 -4.10945 0.0
-6.9289 17.296801 8.96275 3.0
-22.889978 2.568964 14.82161 0.0
-16.492033 13.074367 33.086536 2.0
-22.3433 10.33215 -31.989651 4.0
-19.9533 -8.7545 35.82235 0.0
-19.0798 1.408975 14.968375 0.0
42.202702 33.246101 30.226851 3.0
-24.374605 -9.63374 39.573494 0.0
-22.25795 5.47465 -0.4821 0.0
-20.68685 -7.62395 34.745747 0.0
-22.874884 6.413351 0.615533 0.0
-23.333799 -5.2597 30.62405 0.0
-21.8752 10.298949 -9.074201 0.0
-24.371782 -0.655083 26.147333 0.0
-24.364485 -4.368458 -33.178493 1.0
-1.84815 26.1766 19.3638 3.0
-27.273933 -7.504778 43.69342 0.0
-26.922783 -19.109112 51.369427 0.0
-24.377956 13.3943 -57.1432 4.0
-20.87635 -14.2866 42.110649 0.0
10.058925 32.280224 26.16345 3.0
-21.23465 5.756725 -43.7108 1.0
-25.004 5.1791 18.728149 0.0
-21.126822 12.440066 -42.210636 4.0
17.832047 26.615381 30.345114 3.0
-22.6959 -3.1169 25.849449 0.0
-34.863499 -22.485901 65.707848 0.0
-22.7652 7.1959 11.08395 0.0
-36.04285 -12.0331 -27.033051 1.0
-16.8384 0.7027 19.765551 0.0
-17.384361 1.642688 18.314262 0.0
-25.202118 3.130167 23.682386 0.0
-1.335656 17.392193 15.427343 3.0
-20.847118 14.108899 -14.90329 3.0
-23.3916 7.8921 11.83185 0.0
-26.172899 -18.736032 50.042751 0.0
-23.119263 6.627575 -42.855976 1.0
-19.2498 -10.212 38.171349 0.0
1.8389 16.853401 19.67625 3.0
-43.146225 -33.358871 75.718849 0.0
39.09726 30.679916 31.615807 3.0
-22.499649 15.56715 -57.381599 4.0
-7.93735 17.103399 6.01515 3.0
5.1354 25.674376 23.044075 3.0
-21.754 10.7855 -37.96035 4.0
17.74855 34.121399 27.914951 3.0
-23.614548 14.629196 -53.081131 4.0
-6.8562 18.117599 9.29675 3.0
-32.371994 -3.282988 -33.080795 1.0
-18.974201 9.0931 0.49835 0.0
-25.082052 -3.4819 32.501133 0.0
-15.368999 0.8541 20.833851 0.0
-4.429717 18.345764 12.126429 3.0
-24.357166 14.39185 -63.923531 4.0
-19.282398 12.532199 -19.10817 3.0
-22.340584 2.397294 13.154454 0.0
-24.079399 17.269751 -69.889702 4.0
-25.353868 -2.639243 -34.72784 1.0
-32.103683 5.2924 -36.377468 1.0
-25.956379 -3.16464 34.31525 0.0
-22.2188 14.3472 -72.959099 4.0
-22.890049 12.71265 -19.397251 4.0
11.092689 25.098349 27.14414 3.0
-22.447201 9.4524 -28.88135 4.0
-33.294903 -27.118101 62.505932 0.0
1.132 26.904533 20.837475 3.0
19.855217 25.863382 32.066868 3.0
-5.528625 24.558048 15.465175 3.0
-16.540001 -1.4137 23.952351 0.0
-2.443511 20.872833 15.351494 3.0
11.288284 26.086302 26.844618 3.0
-2.7714 26.2777 18.539551 3.0
11.365947 21.899597 29.900848 3.0
-20.6726 8.4912 -13.50665 0.0
-18.1686 12.6487 -17.72785 3.0
-30.097839 1.600862 -35.926952 1.0
-27.578588 3.425098 -38.322418 1.0
-20.122299 9.4577 19.334949 2.0
-40.299007 -32.391891 70.6194 0.0
-17.904144 15.586116 -6.937928 3.0
-21.143141 -10.10737 38.601871 0.0
-22.6731 5.832358 1.934317 0.0
-19.387867 8.893616 -20.907833 0.0
-21.097183 -11.61055 40.097565 0.0
28.933601 29.35865 31.888851 3.0
8.635547 31.367289 25.180702 3.0
-19.953876 14.3333 -13.291775 3.0
-22.374023 -13.91129 42.623646 0.0
-29.702169 -15.408275 53.299484 0.0
-16.096149 -0.87545 23.158699 0.0
-23.7535 0.4276 23.116024 0.0
26.430115 28.13595 32.37318 3.0
-3.8477 25.357201 17.800699 3.0
-24.1772 -18.887917 47.891365 0.0
-15.391454 16.806454 0.366172 3.0
-21.077477 7.0552 -9.577375 0.0
2.739195 21.103592 21.111061 3.0
-24.269899 10.726533 -48.987915 1.0
-33.293087 -10.583935 -29.139412 1.0
-19.07515 9.670225 21.659874 2.0
-34.50185 -6.3102 -30.882074 1.0
-25.759449 -8.9464 41.459953 0.0
-26.731668 -8.315826 42.979507 0.0
-32.617767 -27.617414 62.072712 0.0
-27.014 -4.1232 40.871651 0.0
-6.393103 21.104467 12.414642 3.0
-21.253599 6.0273 -3.10075 0.0
19.118155 26.126417 31.418571 3.0
-22.126301 3.9336 -39.6292 1.0
-21.402367 13.165517 -17.145918 3.0
-17.7166 -6.8892 32.195251 0.0
-23.3272 16.100166 -65.843819 4.0
-0.882093 16.620682 15.63168 3.0
-23.393717 6.301633 6.612317 0.0
10.10765 25.271351 25.6875 3.0
-22.1656 2.6117 11.64755 0.0
25.069313 33.829086 28.608486 3.0
8.6966 25.071375 24.788849 3.0
-38.578461 -29.943523 68.851791 0.0
-21.1007 2.0887 12.51275 0.0
-19.36186 -2.577183 25.831612 0.0
-10.612835 14.878214 2.132865 3.0
-23.515209 7.689445 10.910386 0.0
20.9074 24.892574 33.944 3.0
-31.394852 2.52705 -35.697651 1.0
-0.2978 21.67915 17.80945 3.0
-23.192436 -1.080507 24.292927 0.0
-30.114101 -11.68025 -28.7377 1.0
-36.869926 -31.41465 67.140396 0.0
-22.808077 8.61508 -1.294125 0.0
-17.4034 -4.8673 28.726351 0.0
28.931469 29.936123 30.853584 3.0
-21.922417 0.6409 16.5289 0.0
-25.148741 1.870106 -37.602398 1.0
-27.664984 10.924867 -44.329918 1.0
-24.393087 13.364156 -58.3503 4.0
15.619344 30.640089 27.850462 3.0
-20.387684 -5.281883 30.710369 0.0
-23.784851 16.529499 -71.211998 4.0
-9.38584 18.324015 7.397098 3.0
-21.40065 -1.026 22.343275 0.0
-22.0867 18.259199 -67.42485 4.0
-23.620543 12.924933 -46.621151 4.0
-17.623934 4.41455 11.682184 0.0
-21.965851 3.173 8.266267 0.0
-7.916482 17.678497 7.630294 3.0
-19.8827 8.82165 13.057716 2.0
7.068115 25.708401 24.302534 3.0
-20.107622 7.401201 -6.634783 0.0
-22.05266 17.93602 -69.94381 4.0
-23.452665 4.827563 10.28365 0.0
-19.633276 -7.690575 34.608627 0.0
-23.985199 15.309099 -72.643448 4.0
-22.093567 17.40369 -72.900734 4.0
-22.0777 11.89465 -22.04845 4.0
-15.36625 13.86735 36.726196 2.0
-24.656349 5.49575 15.78405 0.0
-17.880001 11.85965 -14.7827 3.0
13.628974 23.380049 30.611423 3.0
-18.693029 8.529907 7.60843 2.0
-16.611801 9.868599 -15.31604 3.0
-21.692825 9.4546 -24.723499 4.0
-20.3207 0.6907 17.21175 0.0
-5.30825 23.048676 14.4993 3.0
-24.163879 14.69254 -69.885811 4.0
-16.496666 2.911866 17.318384 0.0
31.174274 34.109825 29.392551 3.0
-24.349569 -5.8998 -32.252018 1.0
-29.459442 -24.12682 57.652065 0.0
-19.951799 7.9015 -8.25375 0.0
-26.180561 0.293906 28.328182 0.0
-23.9657 14.714299 -56.507568 4.0
-15.964629 12.670409 -11.169936 3.0
-23.066799 17.8832 -68.593353 4.0
-21.817101 0.5909 -36.188049 1.0
-2.5605 23.031601 16.445749 3.0
-32.822388 -22.6457 61.109459 0.0
-22.388746 -17.911642 45.643291 0.0
-21.299034 14.098367 -45.059147 4.0
-25.297905 -7.376111 38.901943 0.0
-20.872534 6.808884 -5.381317 0.0
-38.003399 -8.9037 -26.561649 1.0
-21.932699 15.2823 -52.644951 4.0
-12.822698 12.625827 -3.841142 3.0
-16.278099 8.5001 22.345514 2.0
5.0377 22.132126 23.301025 3.0
-24.243092 12.630209 -51.983429 4.0
-0.6322 15.685421 15.104359 3.0
-22.506083 -8.590958 36.634335 0.0
-20.685101 1.1656 15.64555 0.0
-18.373426 15.105937 -8.701145 3.0
-28.597639 -19.335663 53.652927 0.0
-24.624599 12.64365 -55.617149 4.0
-27.597898 4.568996 -38.845997 1.0
-11.700109 17.199621 4.12888 3.0
-24.054171 14.923113 -71.717308 4.0
2.041223 19.393124 20.559275 3.0
-20.304766 -12.505234 40.340252 0.0
-39.164455 -32.644348 69.900734 0.0
-15.92715 3.8823 16.35515 0.0
-23.617146 -7.521879 35.597961 0.0
-3.075239 15.60564 11.900263 3.0
24.693232 35.499001 28.762781 3.0
27.921701 34.931732 28.91345 3.0
-25.856617 -6.011633 -32.317299 1.0
-19.289734 1.3012 16.859818 0.0
-24.4303 13.425644 -59.584717 4.0
26.5903 27.062 34.01215 3.0
-21.392553 13.86842 -55.404247 4.0
-23.701401 0.96975 -36.821701 1.0
-15.388521 11.081386 -11.055958 3.0
33.615101 32.884903 30.429699 3.0
-22.552816 8.570353 -12.592297 0.0
-27.876867 -16.633623 50.837875 0.0
-31.886721 -0.402229 -34.297058 1.0
-20.51865 -6.155025 32.2584 0.0
-12.5415 14.9032 -1.38425 3.0
-17.896599 9.0301 19.878525 2.0
-20.4468 10.4717 -1.12815 0.0
-24.275595 2.638425 20.420441 0.0
24.830187 26.657913 33.862 3.0
-18.841625 11.6715 -19.117298 3.0
36.607845 33.380505 30.221289 3.0
5.876269 20.101692 25.658905 3.0
-23.138145 12.611362 -37.861858 4.0
-18.9128 -0.846375 22.5844 0.0
-19.811266 9.651866 -7.86965 0.0
-29.905073 -11.126461 49.603928 0.0
14.696244 29.356781 27.422213 3.0
-18.8312 7.41265 -1.3269 0.0
-23.5578 12.929 -40.26395 4.0
-21.950001 1.14115 15.277151 0.0
-11.595569 16.705988 3.080105 3.0
-20.112749 2.3451 13.114425 0.0
-22.9086 11.5434 -48.619801 4.0
-18.498333 8.09405 4.17655 0.0
-20.7108 12.6619 -27.759951 4.0
-22.9189 14.32745 -71.576706 4.0
-26.835615 -1.138173 31.667446 0.0
-20.377899 16.7784 -76.76825 4.0
-20.613335 9.521367 20.883228 2.0
-6.368119 15.530532 8.485819 3.0
-24.628288 -2.903511 30.628195 0.0
15.377894 25.631565 29.606934 3.0
-21.1369 14.9856 -59.24905 4.0
8.351208 22.608633 26.598143 3.0
-24.407976 -7.591208 36.887764 0.0
-22.2167 14.11715 -68.734146 4.0
26.533524 30.380575 30.091324 3.0
15.093567 32.291401 27.258883 3.0
-23.628387 -13.655581 43.465092 0.0
-18.794785 8.642784 9.158767 2.0
-31.86075 -11.0838 -29.354187 1.0
-25.864891 -17.658827 48.877102 0.0
-22.879227 -15.08185 44.043274 0.0
-15.7141 8.977 26.995649 2.0
-23.139069 15.286301 -55.11438 4.0
-22.692617 8.642968 -0.410376 0.0
-30.81815 -4.307075 -33.159775 1.0
3.133 17.6339 23.879501 3.0
-20.66353 12.618032 -29.590393 4.0
-16.392151 7.534075 17.880941 2.0
5.42795 27.157101 22.986401 3.0
-22.715 11.46155 -46.838249 4.0
13.913074 24.686798 29.68185 3.0
-31.125032 6.252399 -36.928452 1.0
1.569333 20.605434 19.700199 3.0
-28.917778 -11.120993 48.38736 0.0
-26.347021 -8.104051 42.064262 0.0
-24.823563 1.625212 24.285526 0.0
-21.73193 14.494227 -62.124275 4.0
16.37442 25.911194 29.9655 3.0
-19.360641 3.645817 7.903708 0.0
-21.090401 -0.9651 -35.597649 1.0
-31.914377 -5.096667 -32.492638 1.0
-36.947388 -27.16975 67.889076 0.0
42.10915 30.5513 32.044952 3.0
-22.642797 -16.376593 44.831226 0.0
-6.372807 18.890266 10.618935 3.0
22.8344 30.195999 29.720551 3.0
24.093225 32.392769 28.708202 3.0
-19.390749 5.356983 1.387383 0.0
-20.655251 2.33305 11.134951 0.0
-27.313713 -13.341136 47.348755 0.0
-15.6707 8.9186 26.137451 2.0
-36.608437 -9.362805 -27.870787 1.0
35.634335 35.831234 29.367018 3.0
-15.155145 14.13785 38.072262 2.0
-23.146749 13.12575 -61.914452 4.0
-16.9592 12.2856 -13.83425 3.0
22.96092 29.35495 30.048649 3.0
-40.079029 -30.909912 73.911545 0.0
-18.206573 -9.929501 37.332577 0.0
9.664945 22.887054 27.657784 3.0
-27.800613 -13.363338 48.296082 0.0
18.124855 27.390759 30.090786 3.0
-25.319241 0.077808 -36.396347 1.0
-10.847851 11.35 -0.673534 3.0
-23.623901 -17.925049 46.71983 0.0
-21.934168 6.1283 -4.66155 0.0
-21.624901 12.5077 -23.472349 4.0
-31.900011 -25.131866 60.559143 0.0
19.45155 34.633972 28.13055 3.0
-23.624094 0.096311 -36.170368 1.0
-14.491 13.887951 -5.89325 3.0
-17.886524 -1.25305 23.149075 0.0
-26.492851 11.057317 -44.912201 1.0
44.949123 32.384766 30.039825 3.0
-29.673351 -27.069801 59.692451 0.0
-33.073708 -24.699928 61.631691 0.0
-28.410269 -13.899262 49.860737 0.0
-21.717199 11.945867 -45.017384 4.0
-20.91745 12.6237 -18.725101 3.0
-5.656894 21.405514 13.141861 3.0
-29.11994 0.0907 -35.834328 1.0
7.7938 23.6227 25.51935 3.0
-20.0653 9.8655 -2.85855 0.0
-25.128099 -1.168298 -35.635075 1.0
-23.913851 2.6951 18.893717 0.0
36.149082 31.109985 31.159782 3.0
-21.911102 7.9267 12.303451 0.0
-21.7288 -4.137 28.371201 0.0
-20.476 9.236299 1.2752 0.0
-20.401901 10.3367 -7.920025 0.0
-22.905399 13.1771 -68.417648 4.0
-21.560516 16.638229 -70.57782 4.0
33.598751 30.14555 31.941299 3.0
-20.698 12.081125 -34.328026 4.0
-20.93045 12.33585 -24.307751 4.0
-17.99785 7.9107 9.2508 2.0
-9.160299 16.265499 5.1068 3.0
-28.706951 5.1035 -38.26775 1.0
-27.08935 -9.3102 -30.0492 1.0
-24.700001 15.20915 -75.149994 4.0
-21.697535 12.651366 -50.498947 4.0
5.289992 29.594307 23.112593 3.0
-25.0935 -9.110426 39.7272 0.0
-27.051666 -3.127967 38.317654 0.0
-27.583717 -8.883179 44.707325 0.0
-23.113701 8.1209 3.11075 0.0
12.6171 24.663849 28.8076 3.0
-35.483097 -0.560433 -31.961847 1.0
-18.497299 8.512616 10.694333 2.0
-20.666981 9.82703 -48.137932 1.0
-21.585257 8.843558 -19.575016 0.0
-23.928947 5.353011 12.585927 0.0
-21.1861 14.6296 -57.01915 4.0
-21.936501 16.11475 -67.625153 4.0
-22.003901 7.7466 10.82355 0.0
-28.880037 -2.601738 -34.59465 1.0
-4.15796 19.687698 13.28933 3.0
19.354328 24.866228 32.876549 3.0
-24.164 17.1548 -76.139053 4.0
-17.6147 14.380025 33.848602 2.0
35.144199 28.759399 33.363548 3.0
-24.889168 6.397826 -42.622307 1.0
33.394501 27.438 35.284649 3.0
-37.424301 -26.913601 71.357651 0.0
21.673475 31.081688 28.802412 3.0
-33.866451 -27.902451 63.261669 0.0
-38.095722 -27.905298 71.129326 0.0
-20.33165 7.7126 -10.87545 0.0
-15.39245 10.187 30.299099 2.0
-35.194401 -22.732201 66.885452 0.0
-33.082062 -9.901475 -29.592358 1.0
-21.103025 16.819475 -72.58445 4.0
-17.832907 7.644872 4.583589 0.0
1.89645 15.9529 19.699499 3.0
-22.110498 14.634933 -46.060352 4.0
-32.280796 -21.102531 60.09906 0.0
-29.721701 -25.8731 58.468349 0.0
3.8497 21.675798 22.245583 3.0
-32.855125 4.081625 -35.399025 1.0
-22.115025 4.918 0.652725 0.0
30.592249 31.387501 30.445526 3.0
-18.949699 2.74055 13.0909 0.0
-23.048901 12.1798 -60.46125 4.0
-21.646549 -12.8413 41.238953 0.0
37.68465 31.448399 31.488049 3.0
-41.691601 -33.889297 72.4608 0.0
-25.443108 7.899488 -43.640469 1.0
-19.110901 2.92025 10.8681 0.0
-15.396772 9.62164 -13.335878 3.0
-33.60762 -13.106444 -27.722477 1.0
-20.695675 8.1217 -46.601238 1.0
-45.101299 -35.200802 76.769653 0.0
-37.97105 -10.624617 -25.977932 1.0
-22.848999 8.5637 -10.108749 0.0
-4.927333 15.05 9.357083 3.0
-23.735508 6.116055 10.483872 0.0
-19.264801 8.729525 -6.101925 0.0
-18.045734 6.889825 3.184992 0.0
11.928887 27.593237 26.677563 3.0
-13.594197 11.641238 -6.922253 3.0
-22.394699 12.1814 -27.950251 4.0
-21.096298 13.108326 -43.896027 4.0
-14.094366 15.877343 -0.909939 3.0
-23.685848 -3.3908 -33.697941 1.0
-20.878452 11.614099 -50.42606 4.0
-22.39752 7.921031 15.415123 2.0
-20.200649 11.085725 -24.391399 4.0
-24.418308 -12.652149 43.316277 0.0
-28.628656 -8.91296 46.074509 0.0
-26.492174 -13.484363 46.140812 0.0
-9.172133 14.859117 4.889917 3.0
8.163 20.0975 28.814751 3.0
-26.623703 -3.307295 -34.289375 1.0
14.981 26.829399 28.741051 3.0
10.936248 29.605659 25.900463 3.0
-18.008625 7.644869 3.661825 0.0
10.607408 27.090687 26.091393 3.0
-22.121799 14.0308 -37.70155 4.0
-27.762701 -7.083967 44.231815 0.0
-19.106617 9.482708 20.841774 2.0
-25.028082 11.634925 -47.617416 1.0
-27.4963 -12.033501 -28.102699 1.0
-0.14175 24.879501 19.429825 3.0
39.92524 30.098684 32.909992 3.0
-14.8814 13.7082 -6.88395 3.0
-23.354126 13.679483 -45.151863 4.0
-32.708633 -6.115 -31.73575 1.0
-22.160625 9.968925 -33.5895 4.0
-19.882351 4.81875 2.41345 0.0
-29.394281 -8.919402 -30.789993 1.0
9.056333 29.903633 25.060417 3.0
-25.580313 9.16275 -44.37859 1.0
30.2157 35.679798 29.70595 3.0
-34.696365 -0.69385 -32.597557 1.0
-23.290489 12.6841 -20.166325 4.0
21.414392 25.859873 32.86348 3.0
-19.6166 11.7827 -20.504049 3.0
-22.301636 1.60064 15.88735 0.0
-24.584698 4.945218 16.885452 0.0
-17.368279 13.387589 -13.082717 3.0
-22.746702 12.112133 -30.690649 4.0
-25.123028 -6.655755 37.679504 0.0
-22.928843 13.609787 -65.580612 4.0
-21.138227 10.810834 -12.348117 0.0
-19.8743 13.102699 -15.702884 3.0
-16.2665 8.9715 24.75675 2.0
-20.9715 16.879099 -74.182922 4.0
-9.632288 11.08485 2.881113 3.0
-10.8588 17.3894 5.15105 3.0
-28.211853 -12.64177 48.634018 0.0
-26.590416 -6.848967 42.04343 0.0
29.098671 35.380974 29.116936 3.0
-20.282778 11.361253 -25.381922 4.0
-28.9338 -11.1855 -28.745649 1.0
-20.428951 10.33045 -21.45365 4.0
-25.414 4.0113 22.760151 0.0
-0.316543 18.696329 17.501307 3.0
7.095066 24.8859 24.521082 3.0
-23.6374 13.0557 -41.933151 4.0
2.731667 18.702749 22.06955 3.0
-20.379532 10.130883 -23.065117 4.0
-18.116201 6.098033 3.917333 0.0
-29.124792 1.642217 -36.364582 1.0
29.689535 34.108749 29.2024 3.0
-22.632381 10.085935 -30.28713 4.0
-21.154116 10.117133 -29.852518 4.0
-33.2673 -15.2243 -26.209351 1.0
-14.899899 16.334826 43.726124 2.0
-23.819235 15.0864 -76.359322 4.0
1.0701 28.5119 20.98645 3.0
-19.102924 -8.08425 35.117802 0.0
-14.37905 14.690675 41.318996 2.0
-18.8923 11.5825 27.3279 2.0
22.896864 26.66662 32.657978 3.0
-22.595509 11.811717 -26.054958 4.0
-20.7034 9.7802 21.670551 2.0
-16.860167 11.692 30.676651 2.0
-15.417948 12.604766 34.636963 2.0
-21.607105 12.328943 -20.26622 4.0
-34.418598 1.8666 -33.953548 1.0
-17.563576 -0.441362 21.902199 0.0
-30.910774 -26.913837 60.506424 0.0
11.31925 23.7285 27.894852 3.0
-21.063976 9.89995 -28.104326 4.0
22.91165 31.301701 29.222401 3.0
-16.901489 2.31398 16.903408 0.0
-28.434675 -10.44745 47.091373 0.0
-21.086119 10.077782 0.392271 0.0
-39.912582 -30.597668 71.108902 0.0
-22.86698 17.253988 -66.508011 4.0
-23.356525 13.372975 -70.378975 4.0
-25.587299 6.8421 -42.458851 1.0
3.14345 24.07645 21.457951 3.0
14.9596 28.051201 27.48415 3.0
-22.910801 11.16025 -23.154751 4.0
-5.85011 22.101694 13.604105 3.0
-25.69281 1.618825 26.100235 0.0
-19.393848 6.605375 -1.378075 0.0
-8.431491 13.873085 5.107889 3.0
-23.915506 5.863041 -41.649982 1.0
-24.407623 8.595187 -45.61454 1.0
-22.135187 9.623646 -4.404742 0.0
-22.4137 13.967875 -75.901382 4.0
-22.69515 9.107025 -8.820975 0.0
17.673542 25.7335 30.961565 3.0
-20.723682 10.220917 -5.193233 0.0
-20.361 7.864512 -9.451688 0.0
-26.643715 1.133667 -37.112217 1.0
-25.12355 8.313174 -44.429375 1.0
-23.137945 7.102074 2.836667 0.0
-28.09672 -9.585939 45.906242 0.0
23.940302 27.23885 32.497749 3.0
-20.393805 -0.145371 20.349262 0.0
-22.633999 10.15975 -14.92385 0.0
-23.317017 11.401016 -50.193649 4.0
-22.573288 10.085281 -12.438551 0.0
10.938733 21.295267 30.276283 3.0
-31.6299 -2.82785 -33.500298 1.0
-23.670366 14.305766 -74.868126 4.0
-19.426001 9.0119 11.71165 2.0
-20.498981 12.517779 -31.291149 4.0
-23.392637 15.568876 -59.912025 4.0
-8.657617 12.616359 4.378869 3.0
16.912113 28.377043 28.862019 3.0
-24.164434 1.900267 21.708319 0.0
-22.166599 9.6928 -32.755852 4.0
17.555933 23.0877 33.370285 3.0
-22.386475 10.37031 -13.299561 0.0
-24.551849 12.069201 -51.169098 4.0
-16.195456 9.877671 27.859335 2.0
-22.8925 9.1594 -22.40535 0.0
-19.099751 -6.312 32.167625 0.0
16.7083 26.672165 29.875999 3.0
33.108959 28.475061 33.108173 3.0
-21.326448 1.425073 13.359553 0.0
-19.93285 10.316851 -12.878651 0.0
-21.648487 18.089512 -66.185966 4.0
12.2524 25.7696 27.81365 3.0
1.5439 15.542 18.74435 3.0
-37.370499 -11.8519 -25.70635 1.0
31.308201 30.735901 30.48315 3.0
-20.922451 -1.35735 23.1805 0.0
-28.817869 -14.29475 50.926178 0.0
34.313236 34.923248 29.412739 3.0
-19.161449 11.14155 25.983383 2.0
-24.4352 14.076651 -55.514999 4.0
-20.929335 10.272766 -26.948484 4.0
-20.9606 14.1206 -54.16835 4.0
-0.1015 26.062117 20.118586 3.0
-7.091533 17.7286 7.537917 3.0
-21.501621 8.76462 17.88685 2.0
-18.863634 -0.5476 20.916016 0.0
-2.2653 23.9872 17.82255 3.0
-18.4704 9.0572 3.05205 0.0
-23.936167 -5.9415 33.965683 0.0
-20.2348 4.2457 4.27975 0.0
-34.975052 -29.68375 64.814804 0.0
-21.839775 10.34675 -31.26825 4.0
-21.13385 4.09605 3.2811 0.0
-18.698675 5.30395 5.460125 0.0
41.645718 31.60285 30.864384 3.0
-22.968399 11.1076 -30.932499 4.0
-20.303183 9.15595 -47.630676 1.0
37.649075 29.864149 32.195053 3.0
-35.833149 -10.5774 -27.843925 1.0
-21.927149 2.302717 10.8378 0.0
18.622976 33.137074 28.20915 3.0
-17.2805 12.935132 31.654764 2.0
0.53585 23.512699 19.076401 3.0
-15.700506 13.501107 35.708866 2.0
-24.146423 -19.919634 48.422184 0.0
-8.009167 15.108033 6.280083 3.0
-21.8853 9.493 -31.19175 4.0
-19.910099 -1.85395 24.321499 0.0
-30.086689 -18.702427 55.37402 0.0
-23.694399 13.46425 -65.891953 4.0
-12.5802 14.119233 -1.627317 3.0
-16.636057 13.881281 34.397411 2.0
41.121861 32.371506 30.599974 3.0
-22.816017 3.7179 10.582334 0.0
21.291351 28.13105 30.8167 3.0
-14.9277 15.9879 -1.13675 3.0
42.606327 31.679525 30.646187 3.0
-21.620943 10.353464 -8.137678 0.0
-20.384501 9.3196 -16.355949 0.0
5.221 18.8424 26.303049 3.0
-19.078501 -4.0048 28.123051 0.0
-29.663151 -6.9586 -31.9781 1.0
-15.02075 15.737801 42.126301 2.0
-27.6516 -14.84425 48.397949 0.0
-23.109451 12.181 -59.3549 4.0
-25.616638 -2.11215 31.361362 0.0
-5.4992 17.686117 10.305433 3.0
-24.400814 -6.89388 -31.738737 1.0
-18.372101 1.3836 17.476151 0.0
-36.264637 -14.263934 -26.27285 1.0
-26.563498 -0.602579 -35.927731 1.0
-21.08325 8.8088 6.303717 0.0
-19.892483 12.693615 -17.594524 3.0
-3.734033 22.136517 15.170533 3.0
-32.118324 -27.103439 61.595188 0.0
-29.904001 -4.670143 -33.381424 1.0
-20.097649 -9.507 37.492104 0.0
-32.61639 -13.316759 -27.75555 1.0
1.240025 22.166714 19.438387 3.0
-20.093399 10.171875 23.123348 2.0
-28.30595 -25.423199 57.088951 0.0
-23.624575 1.898421 -37.59803 1.0
-18.4916 10.272468 24.486883 2.0
-20.102148 12.3641 -20.170767 3.0
-39.174591 -31.39395 69.464317 0.0
-24.098 12.914 -64.14135 4.0
-30.881073 -17.627941 56.636475 0.0
-20.390074 11.373444 -27.408134 4.0
-31.9235 1.1841 -34.998348 1.0
-25.72085 -14.901966 46.694096 0.0
10.368675 24.606754 26.926643 3.0
-41.879913 -32.510586 73.503166 0.0
-28.333385 -18.599667 52.874481 0.0
-22.8113 11.068983 -26.579433 4.0
-34.637436 -9.868231 -28.891241 1.0
29.356689 31.910477 29.61659 3.0
-23.066126 8.354866 8.629192 0.0
9.67345 31.327719 25.590754 3.0
-22.7138 -5.8419 32.072701 0.0
-2.08837 18.385242 14.912184 3.0
-17.33445 -6.19525 32.005749 0.0
-22.251999 11.2569 -20.713951 4.0
9.604011 28.635584 25.287359 3.0
-21.3197 17.5056 -73.536957 4.0
-22.719101 8.235601 -11.12855 0.0
-28.790878 -17.042698 51.957741 0.0
-18.24025 7.8715 6.23845 0.0
-22.678267 9.902855 -21.155508 0.0
-31.625217 -21.106033 58.632133 0.0
-19.943199 -3.1129 25.50565 0.0
32.805874 32.684376 30.315201 3.0
-31.63545 -1.87565 -33.743 1.0
-1.236033 27.068733 19.687284 3.0
-21.502373 14.302107 -50.62674 4.0
-16.101801 -4.9176 29.345751 0.0
2.634672 25.645502 21.332335 3.0
1.875414 21.84803 20.111338 3.0
-12.59343 16.734631 2.689767 3.0
36.049519 31.89296 30.732212 3.0
-28.040665 -15.5004 49.732189 0.0
-8.6526 22.290701 11.18585 3.0
-20.1835 3.8033 -41.16975 1.0
-8.263101 18.47883 8.512279 3.0
-6.349261 20.360888 11.861057 3.0
-23.341549 -10.959499 40.42625 0.0
-18.850733 13.919483 -11.746834 3.0
-23.579792 13.26935 -43.121948 4.0
27.647762 26.622726 34.597538 3.0
-22.9547 8.079714 4.092421 0.0
-13.119659 17.294119 3.89317 3.0
-18.394699 8.120725 1.305275 0.0
-27.392555 -11.089656 -28.18046 1.0
-18.133099 1.94495 16.2409 0.0
-22.459949 6.0678 -3.11805 0.0
4.0251 18.356251 24.037449 3.0
-18.301573 8.468743 12.531293 2.0
-26.559032 -10.321817 -28.829765 1.0
-23.635685 12.38674 -45.852921 4.0
-25.698904 -0.837789 29.360937 0.0
-21.484501 13.912925 -51.859848 4.0
-26.795469 -3.892337 39.406952 0.0
-39.680401 -29.904751 71.658501 0.0
-37.423771 -26.870245 70.063972 0.0
-36.580399 -27.11129 66.622536 0.0
-26.8631 -12.931601 45.615448 0.0
-16.320131 1.5415 19.894684 0.0
-22.0641 9.235801 -23.512983 4.0
-28.667383 5.942372 -38.593079 1.0
-23.9963 12.4612 -47.39455 4.0
-8.698334 17.3505 5.895867 3.0
-38.045601 -27.858168 69.807213 0.0
-3.90565 13.429032 8.359349 3.0
-17.122 13.9856 -8.98715 3.0
-35.3078 -12.7491 -27.186251 1.0
-7.7645 21.215351 11.27275 3.0
-15.433304 14.895115 38.126373 2.0
-24.127419 14.919701 -61.407566 4.0
14.85594 22.71908 31.941711 3.0
-42.755131 -33.67297 73.471352 0.0
-13.890699 11.030451 -9.68405 3.0
6.277721 26.878857 23.75351 3.0
-24.879421 -5.362957 35.082367 0.0
2.903892 20.303417 21.62989 3.0
-19.623224 9.09929 6.385735 2.0
-16.892733 -4.163 28.665115 0.0
-23.349035 13.645721 -46.379253 4.0
-17.404985 13.858014 32.903179 2.0
3.317362 17.899275 22.915962 3.0
-22.953499 4.277733 9.07825 0.0
-31.373545 -6.544237 -32.093769 1.0
-36.098801 -23.4879 68.034851 0.0
-24.392681 -14.0621 44.453671 0.0
-18.708117 8.745383 14.7523 2.0
-17.572567 6.103392 6.817275 0.0
-20.860371 12.312685 -38.15012 4.0
-14.419965 16.385824 0.428645 3.0
4.828409 18.890034 25.302195 3.0
-29.089701 -7.3969 45.482349 0.0
8.602224 27.304974 25.031185 3.0
-18.64905 11.0984 -17.130852 3.0
-29.713833 -11.923381 50.35918 0.0
-2.425711 19.638878 14.926566 3.0
5.72275 21.76795 24.8459 3.0
-21.617596 13.473911 -36.311859 4.0
-35.089699 -8.442325 -29.597099 1.0
-17.548285 4.888166 9.106234 0.0
-37.352402 -27.763599 71.491348 0.0
-31.726151 -15.706669 57.62606 0.0
-16.310799 13.14395 34.146866 2.0
-22.1413 15.2461 -51.433949 4.0
-19.295925 -6.76125 33.020901 0.0
-21.632673 17.378628 -75.08831 4.0
-30.649839 2.330861 -35.928078 1.0
-23.28105 11.3042 -21.892448 4.0
-9.913099 12.63315 3.16275 3.0
42.773499 30.7362 31.57975 3.0
-23.295349 17.775749 -71.53685 4.0
-33.991875 -24.619133 62.824726 0.0
-0.3603 27.116951 20.117001 3.0
-3.9665 18.7255 13.37415 3.0
-34.712349 -16.080849 -25.442699 1.0
-21.324499 14.5408 -47.499249 4.0
-23.379555 16.887127 -67.084427 4.0
-30.210451 -13.32716 52.590179 0.0
-25.11455 -4.600425 34.362297 0.0
-21.29941 8.591261 16.403099 2.0
31.277925 32.913723 29.678949 3.0
-26.870987 -0.58008 30.485729 0.0
-23.098049 13.6315 -66.4114 4.0
-28.177675 -11.874 47.907104 0.0
6.966766 20.889833 26.706818 3.0
-21.4086 11.457199 -39.841049 4.0
-33.033798 -2.3014 -33.05275 1.0
-23.461634 1.509111 20.111607 0.0
-20.8444 -1.1427 21.777651 0.0
-31.8346 -28.804701 62.450951 0.0
-24.235859 14.689718 -68.122543 4.0
-20.131231 -11.240067 39.131084 0.0
2.70525 17.09865 22.44095 3.0
-23.625599 13.62115 -48.06255 4.0
36.10405 29.703049 32.491798 3.0
27.1019 27.61475 33.3797 3.0
-6.360196 16.621737 9.340559 3.0
-29.244724 -9.483825 47.1334 0.0
-34.732639 -23.363701 64.377571 0.0
-18.247799 16.03495 -7.5491 3.0
-16.806801 5.8525 14.10535 2.0
-40.950634 -31.822998 74.539009 0.0
-17.302425 8.217699 17.062874 2.0
-19.617601 -0.858025 22.170776 0.0
-4.619889 16.852594 11.315589 3.0
-22.50515 13.27165 -35.308449 4.0
-14.881975 12.404875 -7.6163 3.0
24.305901 33.929802 28.826 3.0
-17.016201 5.853687 9.614525 0.0
39.914619 31.83457 30.931095 3.0
13.701601 27.624916 27.353634 3.0
-24.711222 -17.618641 47.572968 0.0
-21.1028 8.5788 -22.90855 4.0
-15.607697 16.702156 -0.396655 3.0
15.080259 28.911739 27.96413 3.0
-22.0751 -14.6599 43.282051 0.0
-23.485661 16.6991 -68.304932 4.0
-25.652578 -10.712021 42.345821 0.0
-21.133804 12.207517 -21.144327 4.0
24.855682 32.41 29.138433 3.0
-0.985 18.0431 16.136351 3.0
-19.73765 10.093349 -9.475133 0.0
-17.682053 9.374363 22.17436 2.0
-18.942101 11.0863 -17.87525 3.0
-27.979 -17.9722 52.033051 0.0
-22.577351 9.07205 -16.292801 0.0
-28.0205 1.3379 -37.03495 1.0
-9.881925 16.1499 2.6158 3.0
-22.348 13.1441 -61.67625 4.0
-14.5527 14.9066 -3.87605 3.0
-20.603985 10.363667 -25.935658 4.0
23.629032 26.277283 33.901718 3.0
-27.16013 -21.42873 53.272251 0.0
-21.586777 9.28895 20.355312 2.0
-28.288574 -11.959826 -27.741001 1.0
-30.592434 4.719267 -37.139519 1.0
-19.627724 9.082474 1.897133 0.0
-22.665298 -4.46815 29.818199 0.0
-17.295067 7.461633 7.531117 0.0
-21.0312 10.84225 -33.114052 4.0
-15.444751 13.891541 -9.355142 3.0
-24.927208 0.1716 26.380192 0.0
-36.622482 -7.886 -28.690771 1.0
-4.903186 23.310713 15.133693 3.0
-25.906275 -9.50455 -29.446125 1.0
-24.17585 15.172062 -63.930313 4.0
-22.613951 -11.307042 40.349266 0.0
-22.343449 11.566 -49.830551 4.0
-28.907175 -7.895312 -31.317062 1.0
-16.094526 9.389849 -14.64569 3.0
-24.19405 5.607247 13.916403 0.0
-15.4863 1.3343 20.164452 0.0
23.905399 34.891602 28.6633 3.0
-16.534069 8.188845 20.255043 2.0
-21.887001 15.748 -65.233299 4.0
43.888275 31.895485 30.459402 3.0
-36.612171 -25.65476 67.911316 0.0
-21.3745 4.1875 1.91515 0.0
-25.362814 5.651724 -41.613819 1.0
33.655365 27.705587 34.385086 3.0
-23.247263 6.890762 4.318937 0.0
4.284133 27.707733 21.997484 3.0
-24.440273 13.681425 -60.854176 4.0
22.082287 27.128464 31.667488 3.0
-1.7832 21.427799 16.717449 3.0
-21.28615 16.087299 -72.886047 4.0
-16.1828 6.7827 15.03715 2.0
-22.937946 13.409142 -40.394535 4.0
-22.996799 10.8043 -41.321548 4.0
-32.580208 -18.379749 60.963638 0.0
-22.142878 -1.882945 -34.620346 1.0
-25.600494 -8.299209 -30.62265 1.0
-34.846649 -2.151725 -32.061951 1.0
-37.970001 -28.6576 72.153954 0.0
-19.632511 13.355466 -14.387851 3.0
40.903339 30.40715 32.588776 3.0
11.90068 32.082836 26.697931 3.0
-35.955601 -24.878799 69.076347 0.0
-20.829029 10.659342 -30.613724 4.0
-18.911112 13.386337 -13.6684 3.0
-1.1436 14.86735 13.085401 3.0
-36.946362 -4.572483 -29.447166 1.0
13.395457 24.087883 29.861034 3.0
-22.134674 10.85885 -36.369026 4.0
16.870203 24.65616 31.590364 3.0
-0.311792 16.682192 16.57275 3.0
-1.3268 20.648001 15.46045 3.0
-21.654751 -10.8177 39.315453 0.0
-17.2894 11.8087 29.11425 2.0
-17.926399 0.12025 19.79645 0.0
12.297981 26.375313 27.270838 3.0
12.101326 29.605091 26.635109 3.0
-17.807301 5.5541 8.13385 0.0
-30.07575 6.3054 -37.8381 1.0
-24.057301 3.1267 17.72665 0.0
1.108467 23.894003 19.657883 3.0
-36.254623 -24.690289 68.107414 0.0
-20.888601 -9.030499 36.587185 0.0
-24.334658 13.853882 -66.643478 4.0
-20.9783 13.111817 -41.338684 4.0
-2.4178 24.9916 18.28055 3.0
-17.691265 10.620064 -15.907305 3.0
-23.093576 13.414249 -64.338997 4.0
-25.168467 -5.9277 36.879787 0.0
-2.7002 18.100521 14.294409 3.0
-32.258167 -12.49015 -28.430534 1.0
-33.524975 0.1425 -33.636902 1.0
12.661885 23.946356 29.134579 3.0
-22.502899 10.3815 -39.51825 4.0
-19.426788 14.563956 -11.656816 3.0
-22.596174 15.4262 -58.641499 4.0
-30.937847 -14.826045 55.155342 0.0
23.676416 25.647243 34.383373 3.0
-18.3997 12.4523 -16.17115 3.0
8.5275 28.310326 24.681549 3.0
-22.859375 9.909025 -27.127399 4.0
-24.900528 9.377277 -45.673164 1.0
-41.519878 -32.67812 72.091408 0.0
-28.687599 -9.213 -30.42425 1.0
-21.107 6.54315 -6.9631 0.0
-33.680649 -14.30545 -27.014025 1.0
-20.3825 9.9453 -1.733875 0.0
-5.742 18.181 10.95875 3.0
-18.240299 8.8201 3.89905 0.0
-24.148323 14.632485 -58.60099 4.0
-26.619312 -16.105923 48.712128 0.0
-20.3671 12.8948 -36.670849 4.0
-33.113052 -22.100662 61.613972 0.0
-3.1894 19.686167 13.296283 3.0
-17.707899 8.5641 -18.92065 3.0
-26.371637 -4.510761 -33.511677 1.0
-28.634027 -20.675844 54.625881 0.0
-16.647516 7.918083 18.577015 2.0
-25.146526 -11.389875 42.558701 0.0
-18.6147 8.894667 -20.130116 3.0
-1.10424 19.382761 16.650915 3.0
-24.686501 -19.914469 49.085571 0.0
-38.925133 -29.346836 71.505577 0.0
-24.5814 14.1434 -69.386948 4.0
-20.43 4.3644 3.52725 0.0
-22.147175 7.4012 -12.30285 0.0
-17.2831 -5.73195 31.17725 0.0
-23.760401 -15.2519 44.54245 0.0
-24.101288 12.599538 -60.856827 4.0
-21.302074 14.404867 -52.578876 4.0
-6.2767 23.409313 14.35355 3.0
15.8717 33.700348 27.581276 3.0
-32.811508 -25.906116 61.687775 0.0
-22.105858 13.387008 -17.900379 3.0
-23.909483 12.6402 -48.844185 4.0
-20.06665 5.63745 -1.0341 0.0
-34.374729 -26.097137 63.415913 0.0
-16.700325 -6.670175 32.047199 0.0
3.163 25.2866 21.865051 3.0
-26.94265 -2.37965 36.925484 0.0
-21.411682 7.14695 -8.613216 0.0
-31.596052 -19.658716 58.650322 0.0
-25.571949 -17.079237 48.068302 0.0
21.9181 24.1724 34.395248 3.0
-30.864059 -15.644032 55.639313 0.0
9.627983 29.352766 24.971184 3.0
-29.492933 -18.692282 54.527065 0.0
-12.389292 17.734159 5.050301 3.0
-21.926085 11.052415 -16.320822 0.0
-22.152409 12.639029 -29.356899 4.0
37.861034 29.173101 33.419418 3.0
-21.928535 15.851376 -64.420792 4.0
-21.699484 10.123238 -6.598549 0.0
-36.104935 -15.5643 -25.239618 1.0
-1.862059 16.915939 14.369655 3.0
-22.078501 17.394501 -75.991051 4.0
-23.536184 6.397825 8.128836 0.0
0.369262 17.367775 17.685923 3.0
-21.885872 9.162435 -46.606838 1.0
-28.711599 -6.9335 44.973549 0.0
-1.825 14.386 11.77475 3.0
-23.103933 16.1094 -62.113354 4.0
-23.741901 13.94365 -72.6717 4.0
31.878433 30.08852 31.397076 3.0
-32.118378 -14.497388 -26.680286 1.0
-27.827801 -18.852079 52.333511 0.0
-36.021873 -24.728926 66.71418 0.0
-26.578695 -0.098483 29.35507 0.0
-20.890499 10.2725 -4.13015 0.0
15.402928 24.091766 31.346033 3.0
-16.057034 9.854417 -13.707967 3.0
-21.927349 14.561225 -65.178398 4.0
-21.412867 5.131267 -2.081583 0.0
-16.381756 -2.930666 26.377237 0.0
-26.423174 -4.625549 38.908993 0.0
-16.597292 11.100942 -13.113017 3.0
-29.3771 -10.2921 -30.00375 1.0
-22.609812 9.334312 -5.70945 0.0
-22.616211 7.449791 12.835277 0.0
-21.080502 4.2039 4.878025 0.0
-23.3647 11.912457 -39.362274 4.0
-24.0905 15.4561 -73.553146 4.0
-27.114166 -7.821051 -31.168634 1.0
-25.943913 -6.108263 39.088104 0.0
-37.629234 -30.339569 67.441467 0.0
25.394976 35.08255 28.519974 3.0
30.373701 29.922335 31.192968 3.0
-27.6464 -5.9994 44.01955 0.0
-37.487503 -15.4582 -25.45915 1.0
-22.099115 7.491171 -13.717865 0.0
-23.83145 9.898399 -47.698475 1.0
-30.497629 -23.9002 58.661213 0.0
28.131065 25.916534 35.313183 3.0
-18.403999 -0.280588 21.682037 0.0
5.892281 25.624756 23.337566 3.0
-27.528112 -19.888548 52.709213 0.0
-16.1933 10.6052 29.123249 2.0
15.403225 30.854675 27.133774 3.0
-13.3755 17.014799 3.04215 3.0
-18.913549 -3.376 27.11175 0.0
-31.817112 -16.061642 59.661469 0.0
-7.883939 12.393639 5.141156 3.0
6.045325 22.3046 24.196377 3.0
-23.047667 10.893075 -32.850235 4.0
31.974899 27.193199 34.944248 3.0
-16.4154 15.3285 -4.36785 3.0
-21.09833 13.618852 -38.658028 4.0
-25.58395 4.0455 -39.67395 1.0
-14.376332 15.397667 -2.414727 3.0
-22.59536 8.709224 -13.356133 0.0
-23.935572 -1.734628 27.07098 0.0
-21.920401 9.6461 5.90955 0.0
22.573683 32.628151 28.844599 3.0
-36.675793 -28.305 66.570045 0.0
8.345574 25.9042 25.065176 3.0
-20.203699 5.9511 -2.66235 0.0
21.833855 30.147732 29.225531 3.0
-14.9543 12.7139 36.91695 2.0
-23.392012 10.428394 -48.339306 1.0
20.715168 26.415733 31.896317 3.0
-36.628128 -12.37967 -26.445065 1.0
