# .PCD v0.7 - Point Cloud Data file format
VERSION 0.7
FIELDS x y z label
SIZE 4 4 4 4
TYPE F F F U
COUNT 1 1 1 1
WIDTH 1453
HEIGHT 1
VIEWPOINT 0 0 0 1 0 0 0
POINTS 1453
DATA ascii
-2.633833 30.936966 -9.38495 3.0
-15.76875 -25.217899 59.7514 2.0
-8.67073 -17.87446 55.308899 2.0
-15.317404 -7.612754 44.884644 2.0
-11.28115 -10.3968 46.5411 2.0
-6.318938 17.392651 5.541963 2.0
-21.146049 -51.290298 70.856499 2.0
25.35396 53.903637 34.364185 3.0
-4.41925 26.1143 -31.8783 4.0
-4.92705 -3.50445 37.409698 2.0
17.868284 49.870228 28.896967 3.0
4.29455 33.123299 4.27285 3.0
-10.09815 17.413776 31.11845 1.0
14.82965 54.616501 27.4988 3.0
-32.156349 30.7104 82.733597 1.0
-12.671101 -8.3408 44.473351 2.0
-19.077461 -24.875837 63.19635 2.0
-4.26845 23.100201 42.478199 1.0
-0.65325 15.2395 10.6717 2.0
-13.126299 -11.84635 48.416164 2.0
-0.32715 34.014549 1.4656 3.0
-5.488275 -5.48655 42.067123 2.0
-13.23615 21.990601 57.026402 1.0
1.136067 35.796669 5.972366 3.0
-5.83835 23.65695 -2.4963 1.0
34.870262 62.375877 34.392315 3.0
-14.04495 -17.9249 53.8624 2.0
26.146351 58.005001 32.528099 3.0
17.425301 55.104378 28.801277 3.0
-17.891323 -43.371902 68.432686 2.0
-14.628072 -21.346573 56.87125 2.0
-17.954899 -35.469902 66.816055 2.0
11.657101 40.475399 20.263817 3.0
-2.00275 28.951 -34.459801 4.0
-13.899817 18.2836 -42.914829 0.0
-0.894522 21.458586 22.715872 1.0
-7.620092 -13.849345 52.897736 2.0
15.481501 44.901901 27.8092 3.0
-16.75695 -9.2853 46.974602 2.0
15.702971 49.592571 27.06896 3.0
-8.69135 -12.526879 50.72924 2.0
10.667558 36.608456 13.727643 3.0
-8.894758 17.399612 19.587746 1.0
-6.83697 19.899761 4.25058 1.0
3.53575 29.3407 -8.139099 3.0
-19.428101 20.38055 65.175621 1.0
11.8453 51.525551 24.817348 3.0
21.092751 58.133972 30.533375 3.0
-2.89105 17.0509 4.0199 2.0
-7.272539 16.620083 9.139367 2.0
14.80095 47.128101 26.2068 3.0
-20.573284 -34.057083 69.185883 2.0
-1.22065 20.5338 0.2934 1.0
-9.883451 -26.239275 59.563374 2.0
-3.863916 15.383616 6.416008 2.0
6.641712 43.58815 17.873768 3.0
-11.377312 20.079203 48.568615 1.0
-29.383217 29.324568 80.026894 1.0
25.279747 60.386917 31.670473 3.0
-12.414984 -1.712117 37.273808 2.0
17.304394 45.385193 29.961617 3.0
-12.614566 -16.054081 52.620762 2.0
-1.29319 31.724081 -6.321 3.0
-5.921884 22.175274 -48.083866 0.0
-20.61405 -31.410049 69.054298 2.0
-5.33745 28.6096 -32.458302 4.0
22.287487 55.865051 31.194973 3.0
-16.121376 3.933258 -36.41925 0.0
-17.526836 -14.549299 54.396423 2.0
-18.288063 -21.076267 60.472935 2.0
-4.36848 30.59816 -38.660149 4.0
-6.1108 24.428101 -14.3654 4.0
-11.092959 -24.096439 58.612091 2.0
-5.208 27.9485 -26.664799 4.0
-9.311117 -21.861 57.248264 2.0
-1.49435 22.0756 32.8685 1.0
30.589184 60.578583 33.396885 3.0
-31.738926 -57.848576 81.305977 2.0
-0.59035 33.149376 -1.654725 3.0
-1.71965 32.144699 -50.111698 4.0
-13.412239 0.66385 36.288219 2.0
-5.07415 31.155725 -49.429523 4.0
-1.1784 8.559349 20.333351 2.0
-7.665117 12.145617 11.1881 2.0
-12.326679 4.70467 29.627884 2.0
-17.600876 -17.322826 57.436028 2.0
-14.43505 7.06965 27.846199 2.0
2.663725 38.507751 9.951575 3.0
-17.67795 -23.599682 61.107994 2.0
-13.03075 16.005699 47.3936 1.0
24.70705 55.840149 32.258904 3.0
8.910966 48.883884 22.706068 3.0
-2.177125 23.129175 -11.59285 4.0
-10.03525 5.1678 25.7349 2.0
6.33575 45.86153 19.959732 3.0
-6.464184 21.472933 9.901401 1.0
4.471417 43.303131 16.456867 3.0
18.14015 58.018002 29.582199 3.0
-3.7273 30.024624 -13.508375 3.0
-14.08335 19.605801 56.1842 1.0
-25.159649 -49.344799 75.03125 2.0
-21.979151 -35.177101 71.168198 2.0
-3.890738 23.972061 2.608512 1.0
-17.47575 -40.6493 67.855698 2.0
-3.42785 29.1688 -24.8661 4.0
-3.635503 22.03863 29.56996 1.0
-5.76845 22.5616 7.3178 1.0
-11.087931 22.354231 52.960457 1.0
-0.713233 21.384449 16.092266 1.0
21.171366 52.554024 31.310642 3.0
-18.38905 -27.5576 64.001999 2.0
-4.55595 18.2264 -44.4716 0.0
-17.299616 -32.511234 65.162567 2.0
-5.62195 -1.2061 34.091599 2.0
-27.210114 -49.657791 77.859787 2.0
-17.897717 -11.533767 50.638367 2.0
8.691875 46.492424 21.326876 3.0
-24.26395 -44.777599 74.183502 2.0
-15.153334 -39.645035 66.778946 2.0
-4.85695 31.821751 -55.224274 4.0
-8.857511 24.088381 51.086315 1.0
-7.4695 -10.296425 49.726898 2.0
-1.75115 21.467699 -4.8646 4.0
-10.51055 -19.480867 56.069565 2.0
-4.679817 27.379583 -18.3606 4.0
-22.841064 25.1828 71.327118 1.0
-5.89635 15.273434 -42.932934 0.0
12.51039 44.903461 23.488922 3.0
-2.31515 32.928802 -72.3685 4.0
-4.32265 32.954552 -78.253754 4.0
-4.167683 35.161167 -74.521568 4.0
-7.252451 21.108168 26.708235 1.0
-18.851576 8.443575 -36.62595 0.0
-5.069775 25.300499 -9.8996 4.0
10.57245 44.785 21.2325 3.0
-4.411167 21.765867 34.961468 1.0
11.701075 38.602821 18.146894 3.0
-27.653351 -47.0298 78.821503 2.0
27.337662 53.936825 36.1362 3.0
-28.613468 27.36525 76.026947 1.0
-1.7512 7.06355 23.900452 2.0
13.01165 47.272999 24.3992 3.0
8.4006 40.091389 15.956392 3.0
-12.699387 -35.65625 65.563988 2.0
23.878662 51.853172 34.378914 3.0
-1.66365 19.3284 7.718 1.0
-23.16835 22.1549 68.716698 1.0
10.260099 42.6917 19.524551 3.0
-16.112499 -28.861485 62.598598 2.0
-1.859863 34.445522 -80.865433 4.0
-25.201401 -38.1693 73.6931 2.0
11.144883 49.284801 23.971968 3.0
-2.903425 23.126324 8.182449 1.0
-15.934916 7.920166 -38.271603 0.0
-3.076433 24.565365 -19.708035 4.0
7.3873 35.113525 9.522722 3.0
-2.32755 23.363733 0.1007 1.0
-9.083826 18.184113 23.160412 1.0
-15.70795 11.4339 -39.977699 0.0
-14.0527 16.49305 50.858551 1.0
-9.394563 -4.363007 39.424812 2.0
-11.866986 25.354628 -45.894894 0.0
13.316616 42.355747 24.382921 3.0
-11.889771 -27.840405 61.102005 2.0
-21.438549 -42.231552 70.881653 2.0
-1.66845 32.5215 -52.552399 4.0
-11.347633 22.875662 55.362759 1.0
-32.852699 -60.145332 81.374023 2.0
-7.156379 19.347221 -2.35745 2.0
-16.696129 -13.396126 52.33181 2.0
13.2976 39.908123 22.072924 3.0
-2.546225 26.840626 -27.792526 4.0
-7.384658 -6.5519 43.677025 2.0
-6.44955 21.4958 -9.4244 4.0
32.911549 60.706696 34.489468 3.0
-9.714643 17.71384 27.079958 1.0
-9.0661 -15.8491 53.625851 2.0
-18.49341 4.27136 -35.691082 0.0
-12.904565 -19.294971 55.544685 2.0
3.069464 31.702383 -0.459571 3.0
-7.32535 23.030701 46.727402 1.0
10.12575 38.374714 16.143911 3.0
1.141361 27.826422 -12.342545 3.0
-4.864416 27.386358 -21.682766 4.0
-1.86265 27.091999 -19.762699 3.0
-15.359725 -36.865238 66.31765 2.0
-19.354332 -38.615925 68.607002 2.0
2.598408 41.094833 13.09241 3.0
-4.856325 29.689775 -43.640327 4.0
-2.74745 28.385599 -40.070801 4.0
-15.2977 -10.763451 48.4291 2.0
-8.63985 20.100025 35.671402 1.0
-4.585717 33.880558 -66.357552 4.0
-5.35385 23.248699 12.1309 1.0
-6.355484 22.105635 -0.718033 1.0
-3.520017 23.142298 -16.686899 4.0
-10.525984 16.608423 35.307388 1.0
-30.096016 28.366385 77.875702 1.0
-16.54575 -16.508301 55.447529 2.0
-4.6195 29.275551 -48.021751 4.0
-34.610149 -66.682198 79.885498 2.0
-9.664 23.714249 -47.01075 0.0
-8.72655 6.5078 -37.681 0.0
33.85273 57.91021 38.311333 3.0
-12.130134 10.336261 -40.423439 0.0
-7.582 14.109175 8.1584 2.0
-5.75315 24.110451 -6.6631 4.0
6.921 40.165749 14.046801 3.0
-12.08223 -5.38448 40.892056 2.0
-13.519991 18.904621 53.706165 1.0
-3.67835 26.388851 -12.048275 4.0
6.36415 38.793598 11.4389 3.0
-11.603434 9.906384 20.376417 2.0
-19.028051 -30.868032 66.132774 2.0
-0.84215 36.716202 -83.402199 4.0
-3.3873 27.9009 -54.898949 0.0
-5.883713 19.074593 -6.809793 2.0
-4.105983 21.719233 -13.530101 4.0
-3.8572 18.0208 -0.90535 2.0
-8.58295 15.9108 14.8307 1.0
-2.416861 27.642433 -32.421204 4.0
-22.131651 -46.389702 72.007797 2.0
-22.87895 -38.0634 72.119049 2.0
-0.563117 20.925131 18.631409 1.0
38.996349 67.842499 33.976299 3.0
-2.01745 36.373199 -78.9095 4.0
-9.94145 28.03595 -48.680901 0.0
-4.20485 36.823101 -85.586197 4.0
8.579731 42.285664 17.70615 3.0
-3.842125 30.708149 -34.426552 4.0
-16.577909 -1.605155 39.649048 2.0
-5.147483 8.184966 20.268801 2.0
-4.40135 16.955467 1.388917 2.0
-23.73605 -42.435299 73.651901 2.0
-2.67805 33.43985 -85.645554 4.0
-19.126076 24.94475 69.349731 1.0
-5.74025 23.876751 -17.13085 4.0
-11.482201 4.10105 -36.523399 0.0
1.15625 29.298599 -8.6883 3.0
-12.584251 -31.864113 63.715111 2.0
-8.828651 8.9769 17.9154 2.0
-6.93355 4.69515 25.731651 2.0
38.125877 62.671474 36.152802 3.0
-2.16505 29.989901 -44.226002 4.0
42.732151 66.522003 35.343903 3.0
-42.87545 -71.973297 85.684097 2.0
-1.12425 16.6185 8.7656 2.0
-10.157804 20.085783 44.58942 1.0
-5.39195 23.511 -20.7577 4.0
-2.5491 23.86565 -4.46215 1.0
-4.692883 30.165951 -51.471832 4.0
-27.419495 -58.42976 76.364166 2.0
-1.074683 18.373766 12.6525 1.0
0.07075 38.7785 9.7684 3.0
-5.73875 29.941299 -17.851801 3.0
-12.092051 16.943802 -43.308449 0.0
-21.087976 -26.916225 67.080849 2.0
4.415617 41.682484 14.580983 3.0
-1.84815 32.220402 -56.678398 4.0
42.56255 70.245399 34.209702 3.0
-12.56215 8.81575 23.0289 2.0
-1.97295 29.566299 -38.239201 4.0
-3.74735 13.4965 10.8342 2.0
-4.9346 35.103996 -82.436699 4.0
-1.97975 35.109798 -68.3153 4.0
-1.85325 33.937901 -63.9986 4.0
-7.27565 15.73425 4.3152 2.0
1.675717 32.714699 -2.470067 3.0
-11.1648 12.07625 16.853251 2.0
-15.517565 1.095527 37.397774 2.0
-5.2052 31.8521 -68.898346 4.0
0.30645 27.085251 -16.906549 3.0
-25.644281 -45.486164 75.911232 2.0
-21.94515 26.4821 73.094101 1.0
-11.0377 15.40645 42.873051 1.0
-8.84225 6.4547 21.3127 2.0
-9.170525 19.644249 4.29685 2.0
-3.38845 29.952299 -29.772301 4.0
-12.35165 24.4807 61.0294 1.0
-9.078651 22.7244 48.713001 1.0
-6.323503 21.397097 33.845112 1.0
-7.621785 22.06675 44.713947 1.0
-6.334683 21.965134 4.9645 1.0
42.010948 63.555599 37.7547 3.0
-29.172768 -53.262737 79.901863 2.0
-11.302775 12.566983 -41.666294 0.0
45.950451 69.523399 34.383434 3.0
-4.68635 30.747398 -64.502098 4.0
-5.34975 30.70425 -57.141251 4.0
-4.46405 34.645901 -70.995598 4.0
-8.192017 18.375177 17.709188 1.0
-24.066584 -52.893497 73.897865 2.0
-6.77875 20.525902 2.1116 1.0
-3.42015 29.236168 -16.023201 3.0
-5.32405 27.872499 -37.4636 4.0
-38.282722 -68.111252 82.392059 2.0
-12.906925 6.9531 -38.577873 0.0
37.348999 60.182549 38.160477 3.0
6.576817 33.044476 6.8062 3.0
-7.71399 18.899199 12.30146 1.0
-10.483425 16.129976 11.288775 2.0
-30.407633 -60.896896 77.794128 2.0
-1.01445 35.714802 6.4831 3.0
-6.73853 21.316521 22.128399 1.0
-13.838758 -2.577275 39.300385 2.0
-2.397575 22.4501 14.939699 1.0
-0.86095 20.855101 5.7817 1.0
-5.67465 23.71525 -49.653999 0.0
-2.088491 30.324883 -11.42909 3.0
28.157766 58.146263 33.635368 3.0
-8.9071 17.836388 5.667288 2.0
-30.5362 -57.342419 79.332664 2.0
-7.361267 20.698982 -4.4088 2.0
-2.404838 21.302197 -7.359504 4.0
-3.898575 33.085724 -56.818726 4.0
24.171333 50.065514 35.841064 3.0
-3.0942 10.411251 17.138437 2.0
-5.204225 26.701025 -14.102175 4.0
-15.205975 17.603775 58.909172 1.0
-1.695025 23.394001 -8.9356 4.0
-2.920558 23.025749 10.375325 1.0
31.665449 57.8148 36.8582 3.0
-9.40445 -6.95255 42.982033 2.0
-26.934601 -53.057549 76.622192 2.0
-28.59201 -51.083996 80.3601 2.0
-7.085114 20.627077 19.380993 1.0
-7.3553 18.400625 7.900675 1.0
-5.27855 21.756233 37.774502 1.0
5.378055 30.493429 3.537265 3.0
-5.925184 10.458467 15.071633 2.0
-8.375366 9.917067 -39.714718 0.0
-16.666775 16.725525 -40.916122 0.0
-15.05305 21.6719 59.926102 1.0
-12.596849 21.362324 -44.628639 0.0
41.654385 68.295532 34.489567 3.0
-3.11115 25.107 -23.418301 4.0
-13.609125 -33.584984 64.783844 2.0
-19.859482 -43.68058 69.831055 2.0
-8.8759 3.4004 26.4527 2.0
-16.139223 22.880426 63.14798 1.0
-15.061424 13.853875 -41.087273 0.0
-9.594925 17.661987 7.910563 2.0
-3.2617 28.75075 -20.362099 3.0
-17.940271 12.066229 -38.835732 0.0
-3.368725 27.10305 -16.4459 4.0
-4.894683 31.6604 -53.094097 4.0
-8.68563 19.093479 31.45014 1.0
-14.644389 -14.095436 51.622574 2.0
-35.020176 -63.549351 82.803955 2.0
-2.118806 35.56992 -76.424461 4.0
-4.896534 14.209801 7.842516 2.0
35.24025 59.649799 37.4687 3.0
-5.878379 -2.270543 35.895756 2.0
-1.74165 20.091999 2.2861 1.0
39.211838 64.383492 35.316692 3.0
-10.329816 16.710768 38.882401 1.0
-2.32274 31.623449 -54.717106 4.0
-7.735742 19.926359 23.586266 1.0
-3.97385 33.4618 -83.363998 4.0
-20.6777 -23.688751 63.854248 2.0
-2.414575 30.650097 -51.660709 4.0
-5.97755 22.699501 -12.9496 4.0
-6.818325 19.134092 -45.567516 0.0
-0.2829 20.111549 11.677151 1.0
36.3214 65.901894 33.852467 3.0
-19.696449 -35.653198 68.0411 2.0
41.729752 64.814697 36.002499 3.0
-4.70345 22.1511 25.1929 1.0
-2.168783 19.639851 -1.328733 4.0
3.01505 33.0256 1.1449 3.0
-2.28485 25.111433 -12.915133 4.0
-5.884356 21.587292 31.112389 1.0
-39.55555 -68.886803 83.929604 2.0
-2.03125 30.798 -48.560799 4.0
-2.7727 32.7575 -74.465149 4.0
9.392933 34.603058 9.650104 3.0
-6.048084 29.323557 -54.604183 0.0
-30.30195 -54.748798 80.981102 2.0
-9.712383 24.104734 55.693832 1.0
-0.41555 28.321684 -13.612689 3.0
-7.139411 26.88748 -51.384144 0.0
-28.340076 -54.29565 77.827774 2.0
-35.968048 -66.321602 85.264702 2.0
-17.643133 20.891417 63.406265 1.0
-2.83815 31.7444 -41.9655 4.0
-11.192697 14.383174 14.081101 2.0
-11.093675 -13.391602 50.285622 2.0
-8.107245 21.141306 41.091969 1.0
-5.074133 26.615309 -28.397018 4.0
-2.0538 26.164276 -54.357353 0.0
-4.85815 0.7546 31.5438 2.0
-13.34875 4.4648 31.4743 2.0
-17.314707 24.099272 66.283058 1.0
34.731136 67.104034 33.295216 3.0
-0.67365 20.0993 9.3493 1.0
-3.1326 20.3395 -46.153847 0.0
-2.820633 12.357117 13.902934 2.0
-4.657083 33.126717 -62.102615 4.0
-3.370163 32.272789 -45.960548 4.0
-2.72755 33.1987 -79.489998 4.0
-5.17245 -7.7316 46.515202 2.0
4.133984 38.958797 11.274934 3.0
-3.121558 8.884525 19.856026 2.0
4.89635 30.2031 0.37585 3.0
-0.7029 28.920349 -57.177101 0.0
0.03475 21.2113 27.5672 1.0
-2.10035 34.2379 2.4148 3.0
-2.11495 28.220301 -26.078501 4.0
-6.88045 31.815599 -55.8321 4.0
-9.270001 8.5125 19.94705 2.0
-2.09895 26.833099 -23.1588 4.0
-8.467287 19.287638 2.313988 2.0
-1.177337 35.101189 -85.408234 4.0
-2.680144 22.205826 22.150019 1.0
-8.279587 12.144225 -41.313866 0.0
4.93655 34.152901 6.0132 3.0
-15.19495 2.0908 -35.533798 0.0
-4.436062 34.628765 -79.444397 4.0
37.780449 69.546898 33.549198 3.0
-6.3435 22.612701 -4.13395 1.0
-0.41935 18.87595 15.1522 1.0
-3.27715 24.766399 -6.097 1.0
-7.831366 15.636401 -43.424133 0.0
38.337616 65.891205 34.3316 3.0
-4.68785 6.9449 22.8365 2.0
-3.12328 30.915169 -62.829018 4.0
-7.8807 23.8629 -2.63905 2.0
-38.1763 -68.711349 85.417206 2.0
-4.08005 32.299301 -9.4966 3.0
28.837749 56.841187 35.092552 3.0
-32.92815 -60.452534 84.250198 2.0
-3.946025 5.194025 26.142899 2.0
-5.124717 25.315866 -24.524567 4.0
-6.31775 18.067101 3.6166 2.0
-3.69355 21.4636 -11.31645 4.0
-3.03375 30.952101 -58.2845 4.0
-4.54635 25.126251 -1.67915 1.0
-30.660749 30.1343 81.443954 1.0
-25.606449 26.4102 74.302101 1.0
-2.49035 33.1119 -76.387703 4.0
-13.252549 18.089624 51.930622 1.0
-6.81342 20.92164 15.120159 1.0
-9.86045 6.844 23.0182 2.0
-11.25995 -29.678001 62.112976 2.0
34.558701 60.63699 35.674797 3.0
-2.1564 32.872002 -59.91885 4.0
-3.944333 22.369141 19.6521 1.0
-20.04595 -20.667 61.356499 2.0
-11.3575 23.774101 59.334846 1.0
27.33445 52.1586 36.976299 3.0
-1.61095 32.943699 -66.001602 4.0
-6.52285 13.1091 -41.449753 0.0
-8.31221 17.624794 15.711197 1.0
-8.26483 19.510979 27.277538 1.0
-10.413713 2.877413 29.701124 2.0
-22.684906 -41.396645 72.172798 2.0
-4.71 22.715914 13.905399 1.0
-1.31805 21.997 12.9521 1.0
-2.97185 24.8076 -8.5671 4.0
-0.98585 22.053801 4.2617 1.0
-2.840612 32.438175 -5.395025 3.0
-20.151768 -29.870382 67.358147 2.0
-8.095776 29.925499 -52.893002 0.0
-5.115517 17.811234 -3.108733 2.0
-9.595108 14.939966 -43.038395 0.0
30.613649 54.888462 38.095512 3.0
-5.2932 32.802399 -64.917648 4.0
-23.049316 -48.866135 72.939796 2.0
-8.59375 11.8652 13.6368 2.0
-3.0996 36.677876 -75.141373 4.0
-13.084018 13.887867 -41.8937 0.0
4.8372 37.05085 7.853 3.0
-10.562525 12.9119 15.154425 2.0
40.616611 62.083138 38.201729 3.0
-28.450867 -56.352551 77.380913 2.0
-3.39495 31.21455 -66.126373 4.0
1.8543 35.196716 4.290617 3.0
-5.32585 27.2155 -34.099899 4.0
-16.024418 19.856518 60.41407 1.0
-2.21355 28.9226 -36.365002 4.0
-2.1733 4.197125 27.483799 2.0
-8.492783 0.869067 31.859068 2.0
-19.139774 2.14695 -35.081001 0.0
-9.79285 -1.2316 33.9389 2.0
-10.129883 -5.84585 40.93005 2.0
-26.717188 -51.120911 76.638412 2.0
31.613377 59.39946 35.111374 3.0
-40.5541 -70.440643 83.455444 2.0
-34.264297 -62.333847 84.699051 2.0
-0.68375 13.0991 13.5165 2.0
21.03791 54.344105 30.594049 3.0
-0.70215 35.115101 -82.215103 4.0
-6.6137 8.66255 18.142275 2.0
-7.807703 17.414326 10.836571 1.0
-5.6779 27.332451 -54.67395 0.0
-25.668411 -53.841301 75.35498 2.0
-18.942717 -16.835333 58.678852 2.0
-41.379292 -70.860283 85.127625 2.0
-3.847717 23.423201 6.570867 1.0
-8.211933 21.098118 -0.94175 2.0
-11.11574 -8.299783 43.400574 2.0
-1.69625 21.874701 -49.0131 0.0
-18.58885 14.610033 -38.978184 0.0
-9.64683 16.412601 9.31946 2.0
-8.17305 20.1401 33.8475 1.0
-33.878101 -62.272846 81.086304 2.0
8.919967 36.893349 12.920166 3.0
-1.42725 34.991001 -72.346901 4.0
1.39405 37.696999 8.7322 3.0
-3.312525 25.459999 -52.521149 0.0
-25.904959 -56.37891 75.377907 2.0
-3.29579 36.930779 -81.113617 4.0
7.32545 37.890705 12.827173 3.0
-3.90393 -1.633782 33.380833 2.0
-15.408464 17.706394 -41.897446 0.0
-17.040501 -10.837749 49.128853 2.0
-2.34755 35.5089 -70.350304 4.0
-1.341525 27.488674 -17.686775 3.0
-22.74415 -33.921799 72.316299 2.0
-7.074625 20.387175 11.338224 1.0
-10.618871 20.35199 46.887035 1.0
-2.04325 24.649599 -15.5471 4.0
-9.3428 -3.31915 37.88335 2.0
-5.17825 28.555901 -42.201801 4.0
-15.02815 22.7789 61.420101 1.0
-1.70085 32.371201 -62.594673 4.0
-7.34904 23.16983 -6.8169 4.0
-8.947475 19.729925 37.674198 1.0
-10.384726 20.384163 -45.296303 0.0
-18.903412 6.326137 -35.8484 0.0
-13.61075 7.39525 26.18335 2.0
-8.14925 10.123667 15.071701 2.0
-3.11475 26.381142 -30.58651 4.0
-14.1776 17.881075 55.105186 1.0
-7.307175 2.54775 29.295849 2.0
-18.7826 10.582975 -37.551147 0.0
-4.7433 29.917099 -36.93195 4.0
-11.41505 0.5956 33.780102 2.0
-4.6003 27.13155 -35.885475 4.0
-22.24625 -51.715599 72.278702 2.0
-3.40818 6.41075 24.39176 2.0
-10.842017 -16.166334 53.128338 2.0
4.05895 29.952488 -3.61905 3.0
-2.54153 33.449272 -1.91408 3.0
-21.660049 -37.7313 70.736702 2.0
-29.42635 -62.305401 77.123703 2.0
-5.01575 31.6959 -59.061466 4.0
-4.914367 10.16455 16.584 2.0
-32.645954 -63.62743 78.688301 2.0
-6.602121 21.5772 39.125137 1.0
-4.602525 18.87035 -4.873225 2.0
-18.44875 -8.7939 46.417999 2.0
-0.82235 18.553699 5.108 2.0
-6.96785 -18.4391 55.691502 2.0
-2.402959 21.866713 30.917624 1.0
-5.38245 25.87915 -22.590549 4.0
-11.404825 16.367125 30.332325 1.0
-2.44785 18.8416 5.9443 1.0
-8.107037 19.107624 19.387653 1.0
-4.294816 21.454432 -47.274265 0.0
-4.087625 30.304974 -60.880249 4.0
-7.11745 5.6234 23.946613 2.0
-3.51605 35.0909 -67.2528 4.0
-5.5005 3.2567 28.573299 2.0
-2.481617 17.479834 -44.117832 0.0
-3.55635 22.870201 40.691048 1.0
-4.085 29.195026 -57.443676 0.0
-2.79635 19.944201 -4.4334 4.0
14.38415 56.337002 27.910601 3.0
-19.724899 -26.926449 65.231705 2.0
-3.77865 24.047199 -21.4146 4.0
-4.894425 32.898525 -70.654549 4.0
-3.115512 21.867302 33.684135 1.0
-15.6688 -30.457174 63.523674 2.0
-3.82375 36.904499 -77.961899 4.0
-19.17635 -46.772301 69.5131 2.0
-6.83655 24.9986 -10.2147 4.0
-19.30839 22.05554 65.935318 1.0
-5.10435 25.5996 -51.858849 0.0
-19.083992 -13.617667 54.289719 2.0
-1.24225 21.9844 25.9333 1.0
-8.96295 -11.029 48.988499 2.0
-12.918037 3.269063 32.889301 2.0
-8.99845 17.744801 21.366199 1.0
-15.98105 -20.937201 58.042198 2.0
0.636139 32.184948 -5.874333 3.0
-9.929633 17.621582 29.305836 1.0
-2.10485 18.23925 2.89865 2.0
-15.518283 9.689466 -39.324799 0.0
44.362175 66.359077 36.138748 3.0
-15.90225 -4.3997 42.002399 2.0
-20.035 5.08515 -34.965828 0.0
-5.99455 14.4507 4.3774 2.0
-9.378201 2.4252 28.203201 2.0
-2.41975 32.483898 -69.592903 4.0
-4.17285 22.1455 23.3988 1.0
-12.104717 8.691409 -39.526928 0.0
14.737417 43.395996 26.902576 3.0
-13.077906 15.613093 -42.412567 0.0
-2.9841 29.1903 -46.953999 4.0
-36.072403 -66.136101 80.908501 2.0
-8.548484 20.873533 0.956433 2.0
-4.2681 28.654751 -23.330101 4.0
-5.75259 25.503618 -18.093519 4.0
-16.084316 20.347483 -42.408131 0.0
-11.74885 16.9198 46.364601 1.0
-20.42675 -49.672699 70.540001 2.0
28.656006 55.061981 36.607346 3.0
-2.0598 28.558552 -28.2673 4.0
-4.887975 22.351452 17.33485 1.0
-8.368384 21.325666 43.173401 1.0
-16.978203 19.388687 61.855896 1.0
-13.26565 5.9409 28.7358 2.0
-10.224251 1.5519 31.0215 2.0
-3.7132 20.524 -8.2978 4.0
-1.895 30.088449 -42.127502 4.0
-3.159706 0.653885 30.654583 2.0
19.677807 48.640579 31.618793 3.0
-21.166851 -44.165253 70.986099 2.0
38.382648 61.057899 37.004299 3.0
-2.96815 26.8053 -21.605301 4.0
-2.51441 31.473099 -7.69264 3.0
-15.34895 -2.712033 40.302834 2.0
-3.40875 33.0634 -49.804798 4.0
-14.101263 10.607687 -40.292564 0.0
-0.56325 30.956699 -10.2344 3.0
-2.68805 33.5331 -82.141403 4.0
-8.90755 -1.98115 36.0569 2.0
-1.596333 32.445702 -4.135675 3.0
-6.15725 22.218901 20.721701 1.0
12.868809 41.398071 22.965481 3.0
-10.99415 17.5499 44.814899 1.0
-31.607349 -57.183998 83.247398 2.0
-6.08615 20.5758 -7.9616 4.0
-9.760549 13.4161 -42.099701 0.0
-5.074117 16.653868 -43.662098 0.0
-22.929537 23.81535 69.948395 1.0
11.07285 53.101601 24.990801 3.0
-9.083 13.616699 11.46666 2.0
12.79635 52.7696 25.702999 3.0
-2.9182 26.709599 -18.256599 4.0
-2.311 14.594 10.5281 2.0
-7.60775 12.2881 9.4358 2.0
17.966249 44.188248 31.066299 3.0
-8.01605 20.15 30.1649 1.0
-0.30535 25.697399 -20.7204 3.0
-2.583717 23.316717 3.786183 1.0
-4.83605 29.936501 -53.424702 4.0
-25.178101 -47.407852 75.207153 2.0
-4.73479 28.706842 -28.173182 4.0
-3.341883 25.465399 -27.051199 4.0
-16.419649 -44.145302 67.877098 2.0
-20.647177 22.886885 67.739143 1.0
-5.63875 24.166401 -4.74165 1.0
-8.599649 4.280183 24.862284 2.0
31.071301 67.055847 32.886299 3.0
-3.3992 32.8993 -53.127377 4.0
1.4566 34.096199 1.17675 3.0
-2.0546 29.165951 -31.645599 4.0
36.58255 62.6245 35.2038 3.0
-13.3363 10.9107 19.860401 2.0
-2.423033 29.630934 -14.619683 3.0
-20.449249 8.9681 -35.588902 0.0
-5.48545 24.1019 -19.10005 4.0
32.898552 65.912552 32.959049 3.0
-6.89995 18.311901 -0.81055 2.0
-6.83805 15.332733 2.6765 2.0
-1.74915 22.106501 18.150999 1.0
-9.962883 22.906733 51.730434 1.0
-7.32115 15.148 6.0705 2.0
-20.417128 -47.420971 70.583229 2.0
-7.113522 20.100401 8.690329 1.0
-2.42105 35.677299 -73.889397 4.0
-3.384017 22.173273 26.372917 1.0
-3.376225 21.931738 36.351974 1.0
-4.103596 14.626042 -42.378231 0.0
-7.823975 21.0257 37.386925 1.0
-5.452 4.47595 26.792751 2.0
-10.19435 21.349199 48.6642 1.0
-23.385406 -45.851086 73.083885 2.0
-7.119867 1.600711 30.861761 2.0
0.33665 20.5837 23.574301 1.0
-6.62393 20.887779 -46.923615 0.0
-17.843624 -33.900177 66.048294 2.0
-9.36335 10.4993 17.029301 2.0
-1.18045 10.71185 16.49465 2.0
-20.822998 -38.902832 69.650208 2.0
-3.8242 22.33165 -15.1251 4.0
-9.281125 20.090414 40.375591 1.0
-3.47505 31.3972 -40.1465 4.0
-14.47315 22.4489 -44.083599 0.0
-9.98275 18.7036 41.882999 1.0
-5.16915 22.205299 -17.308001 4.0
-1.47945 33.540001 -67.656097 4.0
0.715225 34.531025 2.8481 3.0
-4.62905 29.282499 -30.806101 4.0
18.875084 54.377686 29.380224 3.0
25.24555 63.858501 31.350901 3.0
-15.68225 -26.53055 60.894001 2.0
-14.41005 24.961901 64.191597 1.0
-11.857806 23.646166 -45.694088 0.0
-14.28535 21.641399 58.387299 1.0
-24.592999 -56.716774 74.055626 2.0
-11.123 -9.37665 45.062187 2.0
-11.574396 21.334541 51.608299 1.0
5.89265 36.13575 9.3246 3.0
-6.44345 11.24025 12.1042 2.0
18.981449 51.028099 29.62055 3.0
-4.05115 24.344101 -25.440001 4.0
-13.652527 -12.903172 49.82431 2.0
-5.09785 11.5239 -41.007198 0.0
-13.833117 3.1304 34.483097 2.0
35.574284 64.104973 34.131565 3.0
-21.42495 -30.6805 70.372803 2.0
-18.8127 -44.851875 69.156769 2.0
-10.424838 17.105131 41.356461 1.0
-5.51915 24.5858 -8.304 4.0
-11.850566 18.3547 47.902271 1.0
-15.2725 -6.4034 43.681725 2.0
3.12105 31.008101 -2.0226 3.0
-26.8915 -43.32975 76.736526 2.0
-18.60825 -36.916679 67.686234 2.0
-10.477425 14.893837 12.620613 2.0
-12.652465 5.155529 -37.172512 0.0
-11.95295 19.4161 50.028301 1.0
29.099998 59.538349 33.369247 3.0
-16.3204 15.075075 -40.687248 0.0
-4.77765 26.4244 -30.228901 4.0
-4.3502 28.940767 -17.416634 3.0
-2.411025 15.9086 7.76895 2.0
-30.868292 -56.349392 80.887123 2.0
15.798442 51.291698 27.280949 3.0
-8.106051 -0.0477 33.3036 2.0
-0.17565 19.348499 19.251801 1.0
-5.336383 21.814535 28.880098 1.0
-5.50095 22.245768 41.545933 1.0
-4.627483 20.370951 -10.363589 4.0
-3.3696 34.360149 -62.142952 4.0
-3.21145 28.6357 -44.2491 4.0
-30.83045 -53.939201 82.374901 2.0
-12.6721 13.142225 17.278725 2.0
-1.86155 31.5229 -44.883999 4.0
-1.77045 21.857475 -0.61205 1.0
-9.385119 18.612535 35.317329 1.0
-24.877886 -41.627506 74.606285 2.0
-4.0922 27.916599 -41.030602 4.0
-8.73065 25.410875 -48.408348 0.0
3.07335 36.063248 6.34815 3.0
-3.89115 31.219 -67.835999 4.0
-10.1681 17.212166 33.125668 1.0
-2.429417 28.800766 -56.358681 0.0
-14.379131 4.12702 -36.52919 0.0
-5.515238 22.916561 43.60453 1.0
-12.400925 23.113411 58.181652 1.0
-10.46311 16.505022 23.48666 1.0
-4.54435 32.1917 -73.979897 4.0
-7.422583 -8.643234 47.404282 2.0
-3.188267 23.902967 -18.160715 4.0
3.588275 34.584923 3.8151 3.0
-9.5071 17.750875 24.733002 1.0
-15.271009 -23.846859 58.907818 2.0
-6.87925 25.3384 -6.902 1.0
-11.643275 5.12685 28.151001 2.0
-6.85175 -4.9722 41.229801 2.0
-9.127299 -20.328176 56.585758 2.0
-14.121408 -24.897272 59.699558 2.0
-37.250015 -66.663971 82.502861 2.0
-2.351883 23.875067 -51.853916 0.0
23.493891 59.902302 31.271961 3.0
21.711283 49.073975 33.819633 3.0
-13.3758 19.68915 -43.658722 0.0
25.179817 62.074665 31.454767 3.0
-0.894483 21.415466 21.045616 1.0
-7.07797 22.700222 -8.45186 4.0
7.08405 34.0784 8.0555 3.0
-2.7626 31.1409 -38.659149 4.0
-30.841949 29.260099 79.0709 1.0
2.88625 39.917 11.829801 3.0
-5.00495 27.2698 -20.006701 4.0
-16.8515 -25.075718 61.139847 2.0
-10.371467 18.420767 -44.573883 0.0
-42.799751 -73.284401 84.468597 2.0
-7.62075 22.294399 -5.151162 2.0
-14.14375 9.3251 23.0804 2.0
-1.076 22.61055 -3.8674 4.0
-4.64645 31.096701 -44.493999 4.0
-6.969 18.9146 6.0227 1.0
-2.89805 23.34725 -50.0979 0.0
22.35465 52.142502 32.395802 3.0
28.17745 63.628315 31.973717 3.0
-9.88465 -9.5585 46.2477 2.0
3.624625 33.104874 2.681075 3.0
-4.9036 -0.43515 32.692749 2.0
23.060207 50.160004 34.619095 3.0
-10.624846 -22.679237 57.829712 2.0
-12.103916 -7.052433 42.6693 2.0
-23.5963 26.1423 73.129639 1.0
-11.362301 1.621258 32.421181 2.0
-3.20835 34.206501 -59.803699 4.0
-26.140265 -49.398277 76.358887 2.0
-1.883907 29.442228 -16.916286 3.0
-3.67395 24.099701 0.92465 1.0
-5.39935 16.5378 0.1424 2.0
-5.20655 12.6495 10.9057 2.0
15.925384 55.669697 28.409418 3.0
29.665499 64.588234 32.324902 3.0
-26.641621 -46.114304 77.296852 2.0
-3.890338 22.614342 15.61406 1.0
-1.599625 22.4118 9.327625 1.0
-5.62125 11.2692 13.672 2.0
20.124115 46.159992 33.153885 3.0
0.0617 33.558949 -0.0665 3.0
-15.14625 -17.1586 54.813202 2.0
-15.35145 -8.78915 46.232899 2.0
-2.290417 37.027935 -82.690865 4.0
-5.30835 32.9925 -67.719597 4.0
-9.383231 22.154757 -46.578632 0.0
-4.336083 13.8674 9.347179 2.0
-6.4938 24.296049 -12.46315 4.0
-26.533249 -41.6576 75.847801 2.0
-27.07745 -59.9757 75.936203 2.0
-9.5668 16.14665 18.77075 1.0
-13.35965 16.390106 49.114639 1.0
-3.99365 33.141998 -58.4907 4.0
-8.31665 -7.587525 44.630474 2.0
-4.601845 31.364594 -47.875462 4.0
-3.8699 27.59745 -39.1777 4.0
-17.403816 8.329901 -37.677635 0.0
28.345434 61.888668 32.128517 3.0
-3.58205 31.893299 -72.1567 4.0
31.071817 63.687164 32.643734 3.0
-5.3178 29.305099 -38.353451 4.0
-8.594473 15.395524 8.403408 2.0
-10.088217 -10.695591 47.611961 2.0
-5.94185 23.1478 0.8793 1.0
-11.3363 -2.92035 37.458549 2.0
-5.582775 15.869625 1.786325 2.0
-6.49675 20.019199 -5.6317 2.0
35.194099 68.659546 33.440697 3.0
-6.193205 26.937378 -52.845135 0.0
-21.396324 24.929352 70.617691 1.0
8.92315 35.536201 10.8989 3.0
-12.02225 -11.8125 47.220001 2.0
19.72505 57.310478 29.98155 3.0
-16.400124 23.667351 64.548599 1.0
-18.088083 -18.374617 58.907654 2.0
-14.840933 18.681591 57.601025 1.0
-4.9553 31.702734 -60.686832 4.0
-16.387938 -35.607174 66.264816 2.0
-13.0982 -28.581051 61.895897 2.0
32.894653 64.294281 33.092381 3.0
-12.621342 -9.58127 45.653252 2.0
-3.96145 2.9562 28.9925 2.0
-11.902432 -14.911766 51.714798 2.0
-17.892349 17.682199 -40.4524 0.0
-4.638228 29.572687 -33.585526 4.0
-15.12345 -22.382334 58.016685 2.0
19.395584 47.094467 32.04707 3.0
-2.97255 27.593 -35.8316 4.0
16.401264 44.37841 29.067986 3.0
-2.39915 28.064699 -24.2792 4.0
-7.702762 18.290901 1.292425 2.0
-14.54595 -19.858349 56.015099 2.0
13.07035 37.789501 18.432199 3.0
5.98455 44.746201 18.8423 3.0
-8.397233 17.713533 -44.564644 0.0
14.124949 41.374557 25.382517 3.0
6.299917 37.265034 10.879333 3.0
-16.669716 -8.050622 45.658344 2.0
2.65865 30.110525 -5.137229 3.0
-11.907521 11.068614 18.852228 2.0
-5.31525 -4.158701 39.1063 2.0
-6.08575 -9.5297 50.057098 2.0
-26.60265 25.197399 72.824699 1.0
-6.325169 21.620066 16.938368 1.0
-11.340573 -26.652382 60.127979 2.0
-5.04815 29.976601 -39.997002 4.0
-1.39705 7.5556 22.403799 2.0
2.905875 29.672337 -6.689912 3.0
-15.866076 5.3602 -37.129349 0.0
-10.112516 7.273883 -38.181183 0.0
-23.503201 -54.519798 73.247803 2.0
-22.070375 -50.115875 72.188705 2.0
-7.90625 -22.792999 57.622002 2.0
26.914925 64.595055 31.711451 3.0
-6.407471 -3.333817 38.069504 2.0
-7.4541 25.288977 -49.870125 0.0
-7.487838 20.470627 25.078575 1.0
-4.210783 35.620014 -80.960243 4.0
25.703651 55.642849 33.502499 3.0
-0.21695 19.9825 22.193399 1.0
-6.54335 12.774 7.8836 2.0
-25.456917 24.45553 71.536301 1.0
-19.856449 11.8545 -37.149799 0.0
-22.7045 -36.428299 71.856598 2.0
-6.549417 21.409668 0.711025 1.0
-4.77135 27.4265 -15.4624 4.0
-4.347717 36.074753 -84.138947 4.0
1.296 36.594948 7.34955 3.0
-31.630884 -62.314636 78.330696 2.0
-4.86865 30.999901 -12.9621 3.0
-33.815651 30.274401 83.368401 1.0
-24.59865 -50.9706 74.445503 2.0
-2.164433 20.148199 -2.84265 4.0
-6.097825 22.050449 11.38295 1.0
18.879486 49.369949 30.156363 3.0
11.0789 37.261551 15.153999 3.0
-4.962775 32.099976 -63.382198 4.0
-12.99115 -3.9294 40.0098 2.0
-12.425375 20.855549 52.914429 1.0
-2.90015 16.4662 5.5008 2.0
-5.364167 -4.883244 40.59903 2.0
-4.329817 34.920002 -72.956467 4.0
-16.87945 -6.7937 44.132801 2.0
-3.44825 29.271099 -51.899399 4.0
30.855249 62.105038 33.044933 3.0
-28.011299 -50.187374 79.125496 2.0
-7.907864 19.113186 16.092615 1.0
-8.28745 17.294634 14.108566 1.0
-1.76255 22.629299 7.0506 1.0
-37.95385 -69.267502 81.356003 2.0
-32.864506 29.633806 81.808235 1.0
-36.121208 -65.274879 84.081917 2.0
-1.65865 21.84165 29.242149 1.0
46.493153 68.271126 35.455368 3.0
-16.941532 -42.139885 67.797852 2.0
-0.80345 21.378099 24.335501 1.0
-7.687302 22.386951 -48.292454 0.0
-19.828152 -31.666599 67.493149 2.0
3.7085 37.490349 9.093275 3.0
4.54749 35.600246 6.694455 3.0
-29.31365 -59.616726 77.33963 2.0
-8.99415 21.1971 44.800999 1.0
-4.376367 31.148901 -42.935787 4.0
-5.00805 33.821999 -74.5588 4.0
-2.596292 9.685096 18.46537 2.0
-18.567724 -29.063099 64.803452 2.0
-11.26035 16.482599 26.929899 1.0
-14.2684 -35.653351 65.752304 2.0
-7.612644 -12.629106 51.893734 2.0
-13.871775 -7.368425 44.144726 2.0
-11.822224 -12.625728 49.112164 2.0
-10.9181 -5.1001 39.415253 2.0
-4.621083 29.605499 -49.611984 4.0
-14.07455 -8.46965 45.364349 2.0
-9.73365 -24.90513 58.73703 2.0
-3.72925 -3.6088 36.390099 2.0
-14.608495 6.884689 -38.190262 0.0
26.640427 61.293774 31.869274 3.0
-4.172525 15.931 4.566575 2.0
-16.208801 -0.15725 38.579552 2.0
-5.79265 21.4566 -13.8981 4.0
-9.699984 -17.084667 54.417233 2.0
-5.14595 29.0242 -45.876499 4.0
-3.94465 26.383301 -10.0934 4.0
29.77125 66.303497 32.4189 3.0
18.180929 56.390842 29.299063 3.0
20.900751 59.6926 30.450567 3.0
-8.097651 16.496101 5.5208 2.0
17.476463 46.909126 29.617504 3.0
9.476684 47.466034 22.339869 3.0
-10.666817 9.888667 -39.961132 0.0
-4.76625 28.337999 -25.174801 4.0
14.02835 46.2514 25.1607 3.0
25.869701 53.10825 35.631851 3.0
-13.321325 -21.951088 57.606789 2.0
-10.03875 6.2267 24.447599 2.0
21.16765 50.894001 31.705 3.0
-0.705883 30.4814 -12.147201 3.0
-6.639257 21.425205 3.384932 1.0
-12.38525 0.5553 35.112953 2.0
-4.107625 1.8244 30.237823 2.0
7.898517 41.48653 16.548967 3.0
-7.885199 -3.548733 38.604218 2.0
-17.064426 -21.159149 59.196701 2.0
16.213133 54.12072 28.023117 3.0
-6.202117 21.896433 -10.911684 4.0
-2.2356 32.338249 -58.184898 4.0
-18.725668 -23.677332 62.260666 2.0
18.00515 51.928799 28.719 3.0
-8.401506 -8.532343 46.086472 2.0
-11.119699 -32.379223 63.844048 2.0
22.427549 62.2794 30.797199 3.0
-2.334367 11.595566 15.35735 2.0
-3.47185 35.5588 -69.251999 4.0
15.19495 53.134598 27.198299 3.0
-26.981684 -48.105331 77.9207 2.0
-20.606382 -28.384943 67.338051 2.0
-5.868233 21.67235 26.138952 1.0
-18.40995 -41.829498 68.554901 2.0
15.6694 47.960499 27.188801 3.0
13.920075 43.099915 25.60453 3.0
12.01765 41.1367 21.620501 3.0
-1.70975 37.546398 -74.334801 4.0
-2.3688 31.929184 -47.473701 4.0
23.533449 54.9916 31.4942 3.0
12.642064 43.345303 23.397943 3.0
1.36515 31.344299 -4.56765 3.0
21.51055 47.265099 34.226002 3.0
-4.083067 19.415201 -45.352051 0.0
-7.855684 20.122267 -46.379101 0.0
-6.77625 17.2449 7.0133 2.0
-3.3838 34.358948 -65.147476 4.0
5.196017 31.893816 4.53535 3.0
-13.701813 23.718199 61.306171 1.0
13.394733 51.093803 25.681866 3.0
-18.888821 -40.086315 68.698914 2.0
-9.82225 5.3852 -37.150002 0.0
-8.32995 27.735701 -50.784698 0.0
-5.209913 23.691467 3.361126 1.0
-7.2808 16.909149 2.68685 2.0
-8.902551 -13.795825 51.842728 2.0
14.686638 50.61013 26.45438 3.0
26.643351 54.6959 34.986599 3.0
-9.837616 16.194515 20.33395 1.0
-1.61045 34.8405 -79.395401 4.0
-9.699915 18.36091 38.57476 1.0
-5.208325 26.58905 -25.834484 4.0
-3.6867 29.86385 -55.048653 4.0
-3.915025 23.0121 11.59095 1.0
-13.528666 -5.2715 41.686035 2.0
-5.97965 30.355301 -55.747799 0.0
-4.91465 34.308197 -76.07325 4.0
-13.53345 -15.1572 51.743 2.0
-6.867781 9.593522 -39.696598 0.0
-8.875908 8.115566 -38.588257 0.0
-2.902875 22.606527 -12.847259 4.0
-13.084675 -20.507599 56.47641 2.0
-4.74605 25.167467 -5.872333 1.0
-4.83695 23.872299 8.0492 1.0
-12.113 -22.897873 58.153076 2.0
-3.9049 16.63105 2.941625 2.0
-8.197425 22.9009 -1.4824 2.0
-2.688 25.906052 -20.3909 4.0
11.024083 43.301968 20.710167 3.0
-13.670629 -0.403546 37.362804 2.0
8.126094 43.433563 18.619831 3.0
14.883946 45.638046 26.568735 3.0
14.628725 48.678787 26.124975 3.0
13.6751 53.707375 26.590126 3.0
-2.4458 33.6133 -56.44355 4.0
16.795986 49.12204 28.096474 3.0
-4.893293 24.707243 -3.1113 1.0
-8.081741 -16.5982 54.647804 2.0
-2.852997 36.971596 -84.420769 4.0
-12.708176 -24.358185 59.151001 2.0
5.82377 41.081059 14.720581 3.0
-11.698999 9.14095 21.695751 2.0
-6.411983 -6.8583 44.815102 2.0
24.395842 54.612301 33.112736 3.0
-4.50585 -6.2714 42.986599 2.0
-18.0882 -26.302999 63.041702 2.0
-10.372927 23.37755 54.085278 1.0
-1.84115 18.2106 8.7403 1.0
-1.95 31.339451 -59.386101 4.0
12.427866 48.714634 24.565899 3.0
18.280716 46.256763 30.972534 3.0
11.830663 44.124676 22.348175 3.0
-6.46625 22.269899 -2.5081 1.0
-2.3352 29.6537 -57.6161 0.0
-6.69065 21.63435 40.64241 1.0
-13.14985 -10.7429 47.278702 2.0
-17.400808 -28.681988 63.382271 2.0
-18.263458 -19.631933 59.74057 2.0
-14.08023 -26.158958 60.542244 2.0
-10.1632 19.10635 43.43145 1.0
20.649132 49.593731 32.28672 3.0
-16.657711 -12.4032 51.139027 2.0
7.831987 45.655617 20.386759 3.0
-6.22955 25.7272 -9.003 4.0
-15.1337 19.06555 -42.512352 0.0
-2.6456 29.889376 -33.32325 4.0
-27.31735 26.9891 75.338699 1.0
-7.25665 20.084099 13.4874 1.0
-6.05905 23.848 46.582298 1.0
30.357773 57.426147 35.881962 3.0
-10.375275 16.874386 37.31728 1.0
-11.055201 7.9646 22.935101 2.0
11.082067 39.877335 18.943434 3.0
-12.72175 7.7645 25.0198 2.0
-7.287875 -1.730875 35.910149 2.0
-24.369049 27.661049 75.710403 1.0
-5.08565 15.0172 5.6098 2.0
-10.352433 9.591166 19.593822 2.0
15.743115 42.088634 28.107201 3.0
-4.20315 -5.6424 41.187 2.0
-1.98455 22.841999 -1.9127 1.0
-19.819351 24.07345 68.335251 1.0
16.315359 45.906326 28.560299 3.0
-10.646117 24.901865 -46.65147 0.0
-5.13813 28.706659 -18.905041 3.0
-11.089951 15.423525 39.062576 1.0
-25.04315 -39.635101 73.9981 2.0
-4.47615 28.1369 -43.602901 4.0
-3.56665 22.286501 27.9772 1.0
-3.91155 -4.4467 38.188202 2.0
33.923302 63.30085 33.558701 3.0
-2.55385 23.4825 1.7164 1.0
-5.910139 22.391762 8.847329 1.0
-11.369967 20.820463 49.877289 1.0
-27.342049 -56.932499 76.464035 2.0
-7.645361 -11.4099 50.720123 2.0
-15.591837 -33.080811 64.92485 2.0
21.158749 56.60994 30.541134 3.0
-5.88905 -6.19215 43.574677 2.0
-11.515717 7.477033 -38.788403 0.0
-5.41345 27.1113 -32.503399 4.0
-16.696463 -39.500542 67.285057 2.0
-14.574076 -28.741957 62.285252 2.0
12.301399 39.155201 19.606499 3.0
-3.961425 34.268127 -85.636627 4.0
5.26305 30.334299 1.9404 3.0
-7.86373 13.734221 9.724039 2.0
-27.135899 27.7768 76.900902 1.0
-20.890633 -40.640575 70.08223 2.0
-6.0844 25.818401 -14.929501 4.0
6.31875 39.29245 12.992599 3.0
-7.07235 23.7992 -50.179298 0.0
-5.06314 24.078531 1.68661 1.0
-16.3997 -23.906643 60.094116 2.0
-22.669333 -39.673683 72.052284 2.0
25.069016 58.916828 31.835199 3.0
13.42725 55.063099 27.2416 3.0
-3.417171 12.927467 12.394524 2.0
-35.432812 -64.388084 81.638855 2.0
0.415458 31.130367 -7.088733 3.0
-2.65475 37.717201 -78.773697 4.0
39.450779 62.094299 37.128799 3.0
24.115084 53.145134 33.668266 3.0
-5.3929 24.92445 -21.442348 4.0
-2.89425 32.96595 -77.819244 4.0
-6.36185 21.412109 27.86731 1.0
-14.2097 20.612526 57.308372 1.0
11.48445 47.8204 23.8326 3.0
-2.49755 32.870399 -51.157299 4.0
-2.50335 2.8373 28.3811 2.0
17.875 48.369598 29.362478 3.0
-3.60525 23.5252 5.0065 1.0
-17.30479 3.174151 -35.685844 0.0
-11.278449 -1.865275 36.323074 2.0
-20.17905 -32.871277 68.377174 2.0
-1.62475 24.294701 -7.7296 4.0
-14.357149 -18.670601 55.140202 2.0
-5.844157 23.579615 -15.556571 4.0
27.2773 58.949699 32.747849 3.0
-7.52505 6.761 20.6973 2.0
-1.9241 17.556999 5.1219 2.0
17.889145 53.409973 28.716019 3.0
44.017651 70.074448 34.456249 3.0
-1.088583 21.809935 14.651116 1.0
-1.48035 34.245701 -76.217003 4.0
-33.168251 -60.006699 82.855003 2.0
-30.365051 -58.708748 78.483299 2.0
22.362049 53.7668 31.3713 3.0
-7.635273 20.43215 28.314772 1.0
-7.941825 -21.373224 56.841949 2.0
-18.491001 -22.307924 61.272324 2.0
-3.489825 30.510273 -11.875025 3.0
-4.705033 19.519825 -7.591525 4.0
-12.39795 -0.5597 36.089401 2.0
-19.563551 -25.7838 64.261902 2.0
-13.489189 20.92844 55.882576 1.0
-11.94775 -30.7003 63.061401 2.0
-11.179 6.24025 25.73715 2.0
-16.341183 -15.432013 54.376118 2.0
-6.440508 11.926308 10.372608 2.0
-10.872826 15.781825 -43.415947 0.0
10.591017 50.650684 24.071032 3.0
-15.873459 -38.355999 66.81266 2.0
45.04475 67.660599 35.240402 3.0
-11.387203 -25.34321 59.346035 2.0
11.381525 37.914749 16.850124 3.0
17.136669 50.904259 28.106359 3.0
-13.845134 16.873667 -42.402424 0.0
-5.136883 21.65267 36.309765 1.0
1.11023 28.89584 -10.2505 3.0
-4.0919 29.059849 -26.39855 4.0
-12.674239 -2.634929 38.399258 2.0
-20.917667 -32.599136 69.913269 2.0
-24.615545 -46.132111 74.644615 2.0
-17.678251 -15.595075 55.679901 2.0
-24.053349 -49.3521 73.90181 2.0
9.267425 45.265926 20.748325 3.0
-4.09645 23.286251 -20.09445 4.0
-4.81505 25.8293 -12.9599 4.0
-1.84265 31.166901 -43.404701 4.0
-12.058415 22.794317 56.664806 1.0
-7.8788 5.708 22.4818 2.0
-14.9227 -5.384 42.485199 2.0
7.483883 49.074066 22.323935 3.0
-10.71685 -1.9722 34.9687 2.0
-6.44795 -12.9691 52.723701 2.0
-18.45882 21.420538 64.682144 1.0
-34.284828 -65.310997 79.469521 2.0
-6.04315 22.024233 14.096334 1.0
-11.070011 16.581287 31.83625 1.0
19.92551 51.715355 30.508739 3.0
-2.84105 21.586075 -47.418625 0.0
-2.81745 29.568199 -48.417 4.0
-5.96855 18.1658 -44.8596 0.0
4.96515 45.9319 19.445999 3.0
23.601566 56.616219 31.691257 3.0
-1.385183 31.09845 -8.622967 3.0
-18.53565 -32.344749 65.98185 2.0
-17.436251 -4.6274 41.769699 2.0
-2.72085 26.865534 -29.2628 4.0
-7.6646 21.034 34.888199 1.0
-2.67975 32.450401 -71.035301 4.0
-21.129049 -35.379002 69.995796 2.0
-32.0886 -59.131676 80.648727 2.0
-16.30361 -14.49198 53.257317 2.0
5.947416 47.087456 20.813574 3.0
-1.6653 33.872849 -73.352554 4.0
-2.3182 29.946674 -12.889175 3.0
-12.595449 -17.082466 53.656746 2.0
-3.493 24.567848 -3.49745 1.0
-4.7168 32.0774 -57.48365 4.0
19.632868 58.845737 30.101149 3.0
-32.302246 -60.395508 79.911629 2.0
-10.609776 -20.831875 56.877083 2.0
-3.719607 22.487684 39.2953 1.0
-3.09245 7.183 23.1982 2.0
-2.553513 29.944025 -35.370514 4.0
-4.3354 26.23905 -33.339851 4.0
10.39465 39.153599 17.5604 3.0
-0.911483 19.361568 3.51545 2.0
-23.450251 -44.000801 73.264702 2.0
-5.622013 14.061925 -42.073013 0.0
-17.87274 -13.578774 53.374813 2.0
-0.93365 14.300967 11.879367 2.0
-10.9785 5.29115 26.872551 2.0
-2.08235 31.1926 -52.962898 4.0
5.465167 32.861687 5.621317 3.0
-5.609811 21.677021 32.6157 1.0
-15.89185 -27.699951 61.761398 2.0
-4.5221 22.03005 30.714701 1.0
-4.25445 29.74715 -14.9562 3.0
-14.0988 -16.409351 53.331161 2.0
5.109675 43.926674 17.5965 3.0
11.31205 45.501801 22.562099 3.0
-2.83675 29.256849 -45.500149 4.0
-4.896895 25.582678 -11.345433 4.0
-21.88505 22.115299 68.052078 1.0
-17.362707 -22.3979 60.136242 2.0
-11.821517 22.153351 54.189831 1.0
-16.647392 -18.653229 57.298054 2.0
-1.50475 21.746099 1.02535 1.0
-14.591362 -11.906063 49.215538 2.0
33.501625 61.9702 33.923927 3.0
-13.90045 -30.989401 63.600498 2.0
-9.353187 22.884394 50.152161 1.0
-8.341067 -4.803966 40.430508 2.0
-6.65665 -14.6206 53.77755 2.0
-7.836816 23.086569 -3.969567 2.0
-4.6593 31.455 -50.774349 4.0
-33.591312 -63.112232 79.658379 2.0
12.293501 46.320381 23.595284 3.0
-13.822268 2.08595 35.470451 2.0
-2.369067 30.863867 -50.075516 4.0
-6.44755 21.652201 6.4374 1.0
-6.669375 21.274925 7.904275 1.0
9.857087 43.92691 20.135111 3.0
5.848553 42.839478 16.612411 3.0
-1.326025 21.176273 3.130025 1.0
-6.418893 18.117485 -2.592918 2.0
-19.892715 -37.298035 68.431496 2.0
4.51155 32.091702 3.291325 3.0
-15.618817 18.902231 59.424267 1.0
31.167099 56.631268 37.603268 3.0
9.74335 37.745697 14.853675 3.0
-6.03715 26.261101 -10.3344 4.0
-5.30075 23.3979 6.2552 1.0
-1.68015 32.852299 -55.0695 4.0
10.03885 45.9711 21.8258 3.0
-0.071842 28.645542 -12.264341 3.0
9.53045 49.762299 23.646299 3.0
-4.96585 27.119801 -16.901501 4.0
-3.75235 36.757099 -76.499199 4.0
-5.7681 23.52 -0.90795 1.0
-5.675428 21.846182 23.220778 1.0
-8.360075 12.61955 12.340376 2.0
-2.6185 27.619003 -33.855782 4.0
-1.76425 22.2808 16.616699 1.0
-8.601367 22.324713 47.335724 1.0
-5.30505 24.6667 -50.648602 0.0
-3.86975 28.5331 -56.142349 0.0
-21.412849 -33.882099 70.701698 2.0
-24.601648 -43.068802 74.588936 2.0
-15.743 -19.8825 57.115547 2.0
1.47845 39.058502 10.5168 3.0
-23.93025 -38.5494 73.179398 2.0
-16.916527 -36.795372 66.841843 2.0
-4.87105 7.5936 21.532499 2.0
-22.921259 -47.4137 72.828163 2.0
29.402802 60.91507 32.688904 3.0
-3.386775 24.144001 -0.4669 1.0
-2.579975 29.329399 -41.140572 4.0
-16.148075 6.6974 -37.529224 0.0
-1.73875 20.068001 -46.178398 0.0
-1.3401 22.779449 -5.3756 4.0
-7.81575 7.9091 18.096001 2.0
-7.22195 -5.7758 42.443802 2.0
40.486526 67.492851 34.485374 3.0
-16.292168 -31.811501 64.437218 2.0
-18.34775 19.922701 64.254799 1.0
-20.61655 20.448601 66.055847 1.0
8.053433 47.84137 21.882069 3.0
26.7883 57.124901 33.429352 3.0
-10.347099 -18.260151 55.144699 2.0
-11.598817 3.6207 30.168034 2.0
-29.610357 -56.869293 78.332176 2.0
-2.560125 25.8769 -16.03615 4.0
-6.863517 -0.585517 33.8316 2.0
-0.10475 35.2756 5.4965 3.0
-7.28445 21.134068 30.881752 1.0
-17.630592 15.333517 -39.911331 0.0
-8.636916 -19.130377 55.950886 2.0
-4.22735 32.993 -79.660599 4.0
-4.5107 36.580799 -82.162102 4.0
-12.294701 14.857901 14.8835 2.0
7.309967 46.891155 21.118299 3.0
-0.172847 27.425886 -15.625944 3.0
-2.54885 18.8375 -0.236 2.0
-17.421799 4.8965 -36.356449 0.0
-19.109516 -34.708202 67.076202 2.0
-16.01215 -40.855499 67.232895 2.0
-7.912797 16.115646 11.374287 2.0
-4.14415 11.9444 13.6673 2.0
-7.61907 -9.447269 48.54105 2.0
-2.09105 22.619576 11.520575 1.0
-13.594704 19.881859 54.895176 1.0
-0.08505 20.468349 17.079899 1.0
32.015053 61.5494 33.802349 3.0
-9.444143 18.137022 32.146412 1.0
-6.87525 19.528 -3.72575 2.0
-2.46315 36.362499 -77.532097 4.0
-13.07873 -27.06078 60.937141 2.0
-13.597109 -1.536547 38.279381 2.0
-3.75115 28.2582 -21.5816 4.0
22.225651 57.453899 31.006001 3.0
-6.288084 25.701401 -13.483134 4.0
11.105949 41.911865 20.5368 3.0
-3.10595 30.373602 -59.880432 4.0
-6.10415 6.3075 23.259634 2.0
27.87755 55.216599 35.398701 3.0
-6.8858 -17.13175 55.146652 2.0
-2.69045 33.328701 -84.2173 4.0
-2.32855 25.658199 -19.06415 4.0
-18.405025 23.151682 65.919823 1.0
-17.879084 -25.095766 62.084469 2.0
12.204712 50.071236 24.807064 3.0
15.837636 46.579823 27.434999 3.0
-18.099594 24.345907 67.410049 1.0
-11.085225 16.39735 43.853039 1.0
23.4191 61.345627 31.09535 3.0
9.805533 41.702919 18.628151 3.0
-2.79415 25.2556 -11.6255 4.0
-3.14605 26.463301 -53.544899 0.0
-10.093942 -27.385437 60.378109 2.0
-27.732241 -48.389381 79.111603 2.0
-6.8045 22.9083 -9.8049 4.0
20.50955 61.023998 30.3402 3.0
3.797825 44.295975 17.16185 3.0
-12.692265 -18.114491 54.584957 2.0
-2.21775 22.731199 -10.2603 4.0
2.391657 29.064331 -9.282433 3.0
-36.89835 -67.611748 85.400253 2.0
9.36267 39.87381 16.9352 3.0
-5.301983 5.192944 25.611933 2.0
-15.304772 -9.846614 47.385723 2.0
-9.826722 -13.349528 50.852741 2.0
-8.06645 28.73345 -52.086151 0.0
-0.93185 32.744003 -2.9369 3.0
-3.714683 22.624298 18.308001 1.0
-1.15395 35.965801 -80.065903 4.0
-17.849857 -12.5623 51.951653 2.0
-3.65015 17.6898 0.4251 2.0
-11.1366 26.332951 -46.610199 0.0
-3.103217 17.499567 2.059733 2.0
37.480328 66.89682 33.914101 3.0
3.9169 31.16885 0.53955 3.0
-5.92755 27.8652 -20.934999 3.0
-1.11615 22.2453 5.8875 1.0
-10.47815 18.575748 8.4592 2.0
-4.31395 23.8701 -49.852097 0.0
22.07975 59.10733 30.8769 3.0
-3.587172 31.628733 -69.121498 4.0
-9.8745 4.343883 26.837484 2.0
-17.938049 -9.5454 47.644699 2.0
-15.324807 23.918043 63.717468 1.0
12.70918 39.696888 20.840515 3.0
20.395809 53.093216 30.290882 3.0
-14.876383 12.400534 -40.682217 0.0
7.33145 40.7873 15.412 3.0
-1.149212 29.097708 -14.626416 3.0
13.362014 43.853088 24.590849 3.0
-9.733184 14.906766 11.290001 2.0
-4.74445 22.785999 -48.545502 0.0
10.15258 48.36668 23.135269 3.0
-1.074225 35.421627 -83.815224 4.0
0.091647 30.097294 -9.37935 3.0
-3.8647 32.918335 -55.380848 4.0
-6.910125 20.919399 20.71545 1.0
-26.40435 -44.616901 76.775597 2.0
-9.170232 18.420525 30.351686 1.0
-6.5309 21.307926 18.262352 1.0
-4.14155 32.113949 -49.107002 4.0
8.882915 38.884689 15.421137 3.0
-32.57169 -58.967854 82.17981 2.0
-13.11455 24.5979 62.184898 1.0
-3.080775 36.892876 -73.64975 4.0
-21.59317 25.639139 71.870804 1.0
-13.91671 16.622488 52.39452 1.0
-6.344883 7.605767 20.613234 2.0
-9.901174 -29.599001 61.936573 2.0
-2.043225 22.103775 -8.4132 4.0
6.86165 36.137924 10.3339 3.0
-9.63705 -23.591116 58.09906 2.0
-8.60695 7.1544 19.8897 2.0
13.87465 47.88913 25.268049 3.0
-6.35785 -10.5439 50.980301 2.0
32.616951 57.382401 38.046101 3.0
-5.6764 9.414101 17.44865 2.0
-4.6647 21.801634 33.616615 1.0
-3.89195 30.329802 -35.739666 4.0
-7.80365 11.1094 12.1467 2.0
-6.00035 22.6392 3.8231 1.0
-4.89168 -2.09704 34.827671 2.0
-3.8932 25.778149 -8.84475 4.0
-1.79855 15.5858 9.354299 2.0
-2.53635 20.8673 -6.0707 4.0
-0.8579 20.3533 7.30855 1.0
-8.40035 19.066601 22.372299 1.0
-5.09535 27.704849 -31.0539 4.0
-1.678517 33.939133 0.8728 3.0
3.09765 43.391602 15.8501 3.0
-6.10875 20.186399 -9.6173 4.0
3.12585 41.797649 14.136351 3.0
7.4214 38.908524 13.87225 3.0
-11.6862 -18.73455 55.264648 2.0
-1.90081 21.942501 23.497997 1.0
-18.0984 -16.158199 56.887699 2.0
-10.68715 18.912434 45.0354 1.0
-7.085175 24.06815 47.576996 1.0
-12.74815 22.7749 -44.9664 0.0
10.30735 52.092918 24.49 3.0
-7.81555 20.5352 -2.2675 2.0
-14.605617 -38.079567 66.402931 2.0
-28.19655 28.956499 79.2901 1.0
-4.90215 30.829899 -14.427299 3.0
10.115819 36.141026 12.577168 3.0
-4.914983 33.305168 -69.3582 4.0
-1.56325 9.1648 19.1768 2.0
