# .PCD v0.7 - Point Cloud Data file format
VERSION 0.7
FIELDS x y z label
SIZE 4 4 4 4
TYPE F F F U
COUNT 1 1 1 1
WIDTH 1446
HEIGHT 1
VIEWPOINT 0 0 0 1 0 0 0
POINTS 1446
DATA ascii
-7.748141 48.367458 -37.648483 1.0
-2.2269 -7.904 43.614952 2.0
-11.570456 55.257278 73.633286 4.0
-4.403975 39.470776 -0.19105 4.0
-9.0513 45.601799 -12.49685 4.0
-9.7274 40.687149 6.9093 4.0
6.752602 70.41124 -0.75437 3.0
-6.602795 -17.101944 47.526855 2.0
-4.614375 50.925823 47.918175 4.0
-7.9151 29.532024 1.57615 2.0
-9.68515 42.522903 -9.31475 4.0
-1.9275 53.502102 -30.562149 3.0
-18.708618 37.288498 -69.636642 0.0
-7.8056 -78.739098 61.37825 2.0
-2.79575 -29.614201 54.181976 2.0
-2.574288 -42.031013 57.526939 2.0
6.676834 62.722965 -5.714617 3.0
-8.260983 -16.642027 47.220325 2.0
6.379587 60.468346 -9.860333 3.0
-5.8085 41.225098 -9.821725 4.0
-4.930825 7.615491 28.579243 2.0
-22.005962 46.409107 -70.702835 0.0
-19.40185 64.413956 94.347397 4.0
30.207825 82.597969 13.721959 3.0
-8.65988 -31.58622 56.982071 2.0
-3.05495 -67.884445 59.90675 2.0
-6.0322 46.082199 -32.594452 4.0
-11.637899 4.068425 33.162575 2.0
-7.945 -61.970531 64.141975 2.0
-6.937233 45.649166 17.726284 4.0
-8.253 44.91465 -32.898453 2.0
-7.019329 45.449257 2.8756 4.0
-9.702775 44.289413 -9.685963 4.0
-10.08265 50.380798 53.551075 4.0
13.614908 68.18689 6.156108 3.0
-0.7031 42.3829 14.39235 4.0
-9.73645 39.710098 5.6095 4.0
-9.739192 20.872774 15.717999 2.0
-1.302733 -39.468136 57.249386 2.0
-5.1176 45.499298 7.05835 4.0
-11.901794 51.712894 -59.237133 1.0
-6.17495 29.462524 3.128575 2.0
-9.1638 51.077797 -58.948349 1.0
-19.131975 67.841927 96.350494 4.0
2.86495 -37.249352 56.476227 2.0
-1.695492 12.072512 25.968914 2.0
24.885061 86.393112 7.91986 3.0
15.8176 84.400497 5.9125 3.0
0.095375 46.652229 36.831551 4.0
0.84985 -29.353352 54.382248 2.0
-1.706662 45.414413 26.248125 4.0
-10.36245 -88.656952 62.88805 2.0
-9.0788 43.996498 -31.70455 2.0
-12.3951 58.853851 77.866302 4.0
8.87115 74.595352 1.941875 3.0
-13.46925 55.7113 81.552597 4.0
-12.46995 47.407249 39.482002 4.0
-9.86525 57.125923 -71.11245 1.0
-10.402225 47.820702 -76.957123 0.0
-12.22835 57.431351 75.851547 4.0
13.015265 82.367432 5.244863 3.0
-5.1719 48.161499 37.293549 4.0
-7.065666 54.354481 -31.991936 3.0
-6.5058 55.024433 62.340046 4.0
-13.103601 49.529217 47.93111 4.0
6.9052 61.2421 -7.86115 3.0
-1.901 47.451576 35.604374 4.0
-22.920673 37.935867 -68.223618 0.0
8.280778 71.171928 0.411851 3.0
-7.949236 -37.357998 58.982391 2.0
-2.919717 20.690166 17.6049 2.0
-21.267099 34.324799 -67.786949 0.0
-11.5424 53.5312 -60.326202 1.0
25.060101 89.9506 7.7171 3.0
-21.5303 65.367302 98.221947 4.0
-11.9148 65.906799 -101.46945 1.0
-9.518 46.8363 -24.62545 4.0
-14.221308 38.620369 -70.256729 0.0
-13.119499 61.939449 -98.865799 1.0
-6.891233 -18.2694 48.733551 2.0
-13.073056 48.161144 -76.413773 0.0
3.2154 56.881348 -16.822399 3.0
19.727968 82.703903 7.249817 3.0
24.903334 79.830734 12.282317 3.0
-14.4148 52.898102 77.498947 4.0
-12.578726 53.886539 75.321487 4.0
-5.907838 -22.886963 51.205826 2.0
28.329014 91.973648 8.300493 3.0
-6.98775 49.636749 -39.785103 1.0
21.187901 79.060402 9.64005 3.0
26.22847 87.389587 8.118715 3.0
-6.5941 42.882 -18.652651 4.0
9.32465 62.6465 -2.0252 3.0
-0.150339 42.361473 19.599943 4.0
-8.235601 -21.11655 50.339336 2.0
-2.4809 43.517899 8.63825 4.0
-7.575 -68.78862 64.318748 2.0
-10.173754 41.34309 17.565521 4.0
-10.939384 23.261866 13.319183 2.0
-13.584171 45.442127 35.255089 4.0
-3.709307 -19.362885 48.940594 2.0
-17.342199 46.518299 -73.379951 0.0
-6.0591 55.155399 -29.100601 3.0
0.06745 -40.407227 57.595428 2.0
-5.241148 52.704559 -35.032318 3.0
-4.1906 45.582802 -29.773251 4.0
-6.116036 -35.525482 57.213848 2.0
-3.110458 -55.990623 59.839111 2.0
-3.5768 -37.332146 56.420326 2.0
-3.13355 4.85815 32.825901 2.0
-15.1917 56.9202 85.933594 4.0
-28.612984 71.515564 104.54222 4.0
-9.5373 37.036301 -9.80965 2.0
-3.34555 47.091702 31.071199 4.0
-9.463192 3.756858 33.345699 2.0
13.6724 70.450943 5.894475 3.0
-3.293467 57.393566 66.631233 4.0
-6.5638 47.402199 -15.97185 4.0
-19.864698 36.852627 -69.197968 0.0
-1.004163 9.822963 28.745399 2.0
-10.9607 -17.812426 48.199951 2.0
-4.28015 10.4046 27.07645 2.0
-5.56005 31.695286 -0.8072 2.0
-17.49675 60.529999 91.1278 4.0
-4.1327 29.467199 4.99955 2.0
-13.2938 45.143349 -73.906151 0.0
-11.054405 55.882778 72.727684 4.0
-12.430625 55.403824 -72.769875 1.0
-5.291175 59.595852 -16.298733 3.0
-9.7433 54.743999 67.193848 4.0
1.093767 -32.2164 54.977852 2.0
-10.7445 51.433701 -49.032848 1.0
-8.861575 13.2375 22.998251 2.0
-9.135175 46.35133 -19.333765 4.0
1.0957 -16.575399 51.764751 2.0
4.615735 71.88974 -1.096863 3.0
0.0072 41.124298 18.10895 4.0
-9.86715 42.430599 8.6398 4.0
-0.69515 -25.622349 53.737999 2.0
-9.690066 46.537266 33.472416 4.0
-11.41175 62.110352 -96.174103 1.0
-12.10335 19.806599 18.297852 2.0
-5.3834 22.1703 12.88895 2.0
6.9244 68.616302 -2.23175 3.0
-7.029479 48.086388 32.93692 4.0
0.441175 41.835754 22.431843 4.0
-8.151194 50.256256 49.671272 4.0
-10.071751 58.726852 -84.369995 1.0
-6.104125 34.193302 -5.765375 2.0
-25.8297 68.500099 101.98045 4.0
-6.601863 -3.52342 38.483917 2.0
-22.4051 36.784145 -68.232986 0.0
-2.230339 51.439285 50.533081 4.0
-31.625525 73.148148 105.45877 4.0
-13.626679 57.441513 -89.244751 1.0
-26.233549 66.857819 101.84462 4.0
-7.025333 46.332664 25.562443 4.0
18.761932 84.710876 6.80065 3.0
5.1473 64.385048 -5.817025 3.0
-1.3473 53.176399 -31.908051 3.0
-6.504366 37.019234 -10.369283 2.0
13.371168 78.986298 4.961985 3.0
20.594185 88.326363 7.086868 3.0
-11.6443 54.685776 -83.827003 0.0
36.478981 94.985703 9.070953 3.0
22.039185 82.64064 8.245305 3.0
-10.1602 47.1987 -44.602852 1.0
-11.18475 8.2837 28.270901 2.0
16.872515 71.365028 8.848823 3.0
15.480825 70.027634 7.920014 3.0
-1.585155 45.700001 28.130407 4.0
18.071669 81.511963 6.854083 3.0
-11.67335 47.883152 41.838203 4.0
-13.1095 49.507767 -77.574921 0.0
-5.8049 -71.449203 61.49585 2.0
-6.130471 24.492336 8.849466 2.0
-8.862325 58.952835 73.70475 4.0
29.146299 93.3312 8.334749 3.0
-10.9453 65.197998 -111.12215 1.0
-12.4171 53.592499 -66.706146 1.0
8.513275 62.857849 -3.37525 3.0
-5.030909 -13.251175 44.846584 2.0
-3.1453 38.858234 6.089783 4.0
-4.0537 44.228233 -0.0281 4.0
-9.363 39.888 0.78955 4.0
-9.270149 -79.314301 65.123451 2.0
-9.852749 39.698051 8.7554 4.0
-13.8546 46.745499 38.676949 4.0
-17.31175 36.733849 -69.103897 0.0
-8.786076 43.901726 3.185525 4.0
6.631675 67.639389 -2.867725 3.0
34.404064 90.791122 9.831051 3.0
-19.603901 41.580776 -70.84021 0.0
-2.7915 38.505798 7.18965 4.0
-12.566787 53.356945 74.291016 4.0
-4.364533 12.048216 24.775517 2.0
-5.32845 -61.844948 62.476547 2.0
0.328067 -1.681067 37.294617 2.0
-9.401051 45.681503 30.899433 4.0
-2.1715 25.61665 13.3091 2.0
-9.8471 40.578827 10.31815 4.0
-3.989856 52.957535 -32.841908 3.0
-12.462962 46.605598 37.167435 4.0
-5.318 39.0144 -13.32825 2.0
-2.603463 50.070511 45.606468 4.0
-9.4058 50.208099 50.541752 4.0
-6.122 41.565948 -11.633101 4.0
13.872338 81.72493 5.548274 3.0
-29.684641 71.284065 103.90678 4.0
-9.1391 43.999275 10.11345 4.0
-7.7136 48.472698 41.44545 4.0
-5.615 10.3035 25.82435 2.0
21.365156 76.633514 10.896072 3.0
-12.916201 59.50462 79.910194 4.0
-9.808739 53.86253 62.493298 4.0
-0.08765 64.405396 -9.582501 3.0
-9.349555 43.648396 8.865578 4.0
12.195888 81.396767 5.081049 3.0
-2.9668 -7.6118 42.05735 2.0
0.10252 -43.598354 57.87328 2.0
-2.716917 -32.391434 54.712952 2.0
-12.483559 61.989769 -97.05806 1.0
-6.416486 53.627579 57.861889 4.0
-3.419475 51.765461 51.735981 4.0
0.1206 -51.551834 58.310452 2.0
-9.1188 59.830948 76.667297 4.0
-9.9688 46.887886 -29.550137 4.0
-5.260992 19.64595 16.047899 2.0
-13.9038 43.271301 28.49695 4.0
18.91984 85.906776 6.808095 3.0
-13.845 51.138248 70.277054 4.0
-6.63745 45.655533 3.862817 4.0
13.06205 74.32785 3.9865 3.0
4.31835 58.393074 -14.5543 3.0
10.974359 80.217072 4.654038 3.0
-12.8564 56.945801 -82.993446 1.0
-3.196926 -35.605381 55.643826 2.0
-5.9703 53.225876 -36.384125 3.0
-9.782384 55.684925 -64.662888 1.0
-5.24485 -45.259899 60.531849 2.0
-14.896439 56.227032 83.325783 4.0
-4.974306 54.864014 60.791294 4.0
-9.47785 54.088551 64.89415 4.0
-2.54 42.772697 6.5459 4.0
-4.377712 51.902054 51.908539 4.0
-13.950825 52.609627 73.862595 4.0
-13.7206 64.281265 86.451515 4.0
-7.615625 -49.687199 63.044498 2.0
-2.832175 23.843275 13.715004 2.0
-11.5148 52.034901 -55.923649 1.0
-12.343996 49.186409 47.252731 4.0
34.107391 87.16127 11.857651 3.0
-3.80265 41.899551 -18.75585 2.0
-1.3834 50.441002 47.642448 4.0
-9.6172 42.4599 -27.762449 2.0
11.3475 66.122849 3.26995 3.0
-8.341801 50.86655 -51.039948 1.0
-3.1471 43.60915 4.7088 4.0
-15.798728 38.839314 -70.562447 0.0
-8.849267 52.927799 -37.913685 3.0
-10.018562 54.426987 -84.068024 0.0
-14.81735 64.644798 87.431152 4.0
-10.49746 54.28764 68.122513 4.0
-22.577904 42.803734 -69.368546 0.0
-4.013088 46.348316 23.51844 4.0
-0.794125 -42.6712 58.044998 2.0
0.93625 69.489349 -3.4819 3.0
-7.411933 8.526617 27.646917 2.0
-4.2934 43.042786 -5.646 4.0
-7.101467 -9.917701 43.347351 2.0
-15.573612 65.830238 91.355576 4.0
-8.200897 52.593987 56.900967 4.0
-10.0739 49.4408 -53.67445 1.0
6.980812 72.150475 0.200552 3.0
1.717367 -32.958233 55.161182 2.0
-7.52185 47.913498 -32.7439 4.0
0.192945 -31.271069 54.746117 2.0
-6.847837 -40.01556 59.580673 2.0
19.608601 80.981201 7.33795 3.0
-12.7729 36.279076 -69.249207 0.0
-11.61825 53.44239 70.662201 4.0
-6.719633 46.3755 -14.750366 4.0
-6.106871 50.545906 47.64426 4.0
16.066053 75.718018 6.704295 3.0
-9.185374 54.769375 -65.618774 1.0
25.360739 88.143951 7.832063 3.0
-2.908325 60.194511 -16.014351 3.0
-0.09455 50.314724 48.700424 4.0
-23.63376 35.583969 -67.302986 0.0
-10.997999 41.871101 -20.306625 2.0
-1.694533 54.177597 -26.243032 3.0
-2.6474 -20.010201 50.462402 2.0
-4.901375 8.975849 27.158751 2.0
-9.4469 42.045101 -26.529449 2.0
-13.020853 52.949162 71.305992 4.0
-9.614641 46.394325 32.317932 4.0
-10.328873 41.653393 14.379384 4.0
26.888483 89.155457 8.039033 3.0
-14.35601 52.149334 72.712952 4.0
-7.082317 45.77335 -27.783783 4.0
-2.8855 37.006374 -9.91195 2.0
-9.701164 30.169104 2.200072 2.0
13.413008 83.553902 5.627096 3.0
9.5893 63.104248 -0.84875 3.0
-8.871962 55.398788 66.755814 4.0
-8.217344 -19.626158 49.309895 2.0
34.874134 92.929138 9.297584 3.0
-1.849325 -68.436996 58.765373 2.0
-3.672 41.159378 -1.044825 4.0
-9.715584 32.608566 -1.8793 2.0
-10.8455 43.7826 -25.31765 2.0
-12.8554 62.8106 -101.72405 1.0
-3.725463 -2.857887 38.226067 2.0
4.004612 59.49535 -12.861292 3.0
-10.858625 42.178886 20.239187 4.0
-16.298292 57.447655 86.584816 4.0
-13.096649 25.567249 11.13615 2.0
-5.094198 45.38422 2.620185 4.0
-12.440692 51.673656 67.986717 4.0
14.118533 77.32486 5.093717 3.0
-12.4025 64.991402 -101.01705 1.0
-7.673125 44.7887 14.1611 4.0
-14.128201 61.905548 -106.3387 1.0
-0.325827 43.454628 24.453587 4.0
-4.29705 55.034851 60.196899 4.0
-24.665733 30.862099 -65.067383 0.0
-5.334619 54.672371 -32.814697 3.0
-15.0438 51.071201 64.938148 4.0
-10.0368 51.006599 55.49115 4.0
-6.0323 16.82865 18.102551 2.0
12.385734 73.377739 4.15465 3.0
-6.81501 -0.169341 35.835125 2.0
-11.066 31.206301 1.10015 2.0
0.445625 63.135201 -10.67565 3.0
1.025375 45.080124 33.2178 4.0
-17.659351 49.518097 -74.133896 0.0
-6.7588 15.9013 19.329149 2.0
-29.435801 71.9039 105.04715 4.0
-16.499701 66.581596 92.898354 4.0
-9.13475 6.48805 30.42765 2.0
-11.333996 52.382408 -55.029915 1.0
-6.750063 28.9958 1.621738 2.0
-10.034624 43.409424 -26.0254 2.0
-11.850075 64.151703 82.949326 4.0
-10.865667 19.163757 18.195683 2.0
-11.808075 57.127075 -74.610153 1.0
-7.600992 47.476227 35.500534 4.0
-2.506 44.548901 10.69285 4.0
-8.2561 45.0616 5.81475 4.0
-17.5872 45.076385 -72.795776 0.0
-10.87865 52.528503 -53.182949 1.0
-1.656649 50.2234 46.686722 4.0
-6.780975 20.508474 14.007875 2.0
-3.7407 49.955914 45.221294 4.0
-7.45235 -69.7798 64.997177 2.0
-7.649633 -74.076698 64.371849 2.0
-7.9845 62.273399 77.420753 4.0
-8.247416 45.123829 4.031534 4.0
-6.9951 46.866001 -7.50195 4.0
-12.6634 56.592724 -78.338577 1.0
-0.3948 54.1922 -23.163151 3.0
-10.884251 58.2173 -76.660851 1.0
2.5122 61.893101 -10.843917 3.0
34.585625 86.289597 12.877899 3.0
-4.65565 46.641449 -31.45145 4.0
2.237881 -49.109833 58.020718 2.0
-10.286716 -19.2924 49.030548 2.0
-2.4213 27.669901 8.20475 2.0
-3.91435 16.33255 21.31575 2.0
5.629856 71.265373 -0.843575 3.0
-0.8913 62.703568 -11.968583 3.0
-5.9357 20.634701 14.99165 2.0
7.32735 74.861153 1.014 3.0
3.735708 66.099945 -5.813325 3.0
23.9317 81.270599 9.925784 3.0
-11.248667 17.480005 19.893517 2.0
-5.8092 42.678101 -23.09445 2.0
-12.48675 65.468651 83.675247 4.0
-25.646999 70.280472 102.67123 4.0
-0.85695 -5.1193 40.7449 2.0
-5.2753 50.951199 49.408051 4.0
-7.03765 -71.826645 62.210052 2.0
-12.789891 40.034775 -70.906647 0.0
3.358433 -33.557652 55.449387 2.0
1.890361 60.870007 -12.310596 3.0
0.160769 2.526418 34.983898 2.0
-10.858075 -0.997075 39.2071 2.0
-2.802875 55.923851 63.202225 4.0
-7.60185 -60.225624 63.992352 2.0
-8.893551 48.212124 -29.190901 4.0
-7.678375 44.269951 -29.3239 2.0
-3.754263 43.34901 -25.426113 4.0
-10.396066 41.170837 12.931666 4.0
4.02515 65.455826 -6.638025 3.0
10.1738 67.042099 1.96785 3.0
-7.036361 -48.736752 62.469707 2.0
23.530701 79.109894 11.362083 3.0
-0.0761 51.1842 51.868698 4.0
1.002792 -28.4007 54.344254 2.0
-3.0342 25.7227 10.84805 2.0
-6.085692 53.157692 56.859131 4.0
-13.90115 60.899849 -100.15131 1.0
-7.080444 33.719719 -6.559228 2.0
17.491638 84.417145 6.5826 3.0
13.941283 73.680733 5.362417 3.0
-5.914975 26.028126 8.370674 2.0
21.7472 87.158401 7.19965 3.0
-15.04665 50.918949 62.286201 4.0
-3.4375 44.8228 11.66085 4.0
-7.612583 -13.161049 45.036621 2.0
-5.215125 -50.004219 61.368668 2.0
-7.289228 47.276363 -23.766119 4.0
-10.442724 60.131023 -89.800873 1.0
-9.605034 58.580498 75.381432 4.0
-23.891975 44.209778 -69.056725 0.0
8.2502 66.151672 -0.691694 3.0
-6.6024 44.903702 -22.301449 4.0
-14.624625 41.676453 -71.803848 0.0
-8.5302 51.669502 -49.20295 1.0
-8.9368 31.873001 -1.58425 2.0
-38.340302 78.36985 111.4685 4.0
-12.120399 64.921005 -109.94894 1.0
-9.647312 41.840836 2.145875 4.0
0.483884 -21.855789 53.0037 2.0
-7.3122 55.615398 -27.61825 3.0
-30.8494 71.731247 105.1961 4.0
-6.4857 46.967449 -34.328899 4.0
-2.897963 7.016687 30.484064 2.0
-10.56185 55.063427 66.515526 4.0
29.29985 90.166901 8.570296 3.0
-12.785 -94.651001 60.429749 2.0
16.902534 80.200523 6.449711 3.0
-4.61345 58.289001 68.245728 4.0
10.3348 77.492104 3.60275 3.0
-5.33173 -37.612709 57.582615 2.0
19.617834 74.619179 10.680092 3.0
-6.350992 57.780739 70.001625 4.0
-2.9423 42.3116 -21.88625 2.0
-10.646088 43.359417 -72.730743 0.0
-40.3694 79.291901 112.67545 4.0
0.5787 44.7686 31.24745 4.0
-6.343163 -67.016586 62.638149 2.0
-29.362051 72.91642 104.83007 4.0
-9.689951 -86.621704 59.827332 2.0
-9.3342 44.747452 21.963051 4.0
-11.221375 59.572475 -83.736801 1.0
-4.12455 52.295898 -34.24725 3.0
-5.13135 44.846397 -7.1208 4.0
1.606878 -23.64213 53.868267 2.0
-9.4782 49.435398 48.030949 4.0
-22.121786 45.085712 -70.348869 0.0
9.87871 69.113754 1.631275 3.0
-9.182669 36.676682 -10.664662 2.0
11.189049 67.644737 3.422125 3.0
-22.621632 67.391953 99.376183 4.0
-11.58455 40.124699 17.582275 4.0
12.044149 66.155251 4.02745 3.0
-20.14975 65.893852 95.530449 4.0
-8.8001 41.0877 -21.895651 2.0
-8.9024 49.481701 46.606686 4.0
-14.596438 39.876827 -71.154663 0.0
-7.5637 47.597198 -36.246948 4.0
-1.580358 61.832218 -13.325566 3.0
-0.456931 -11.865082 47.598824 2.0
-10.618701 42.637669 23.038584 4.0
-9.10565 -16.528099 46.908051 2.0
-10.90072 55.880543 69.705307 4.0
-10.092 48.988499 -51.810753 1.0
-9.661025 41.612324 0.392983 4.0
-0.129275 52.002949 53.580074 4.0
-2.9377 -11.929 45.623398 2.0
-12.3653 24.494385 12.731198 2.0
-14.933766 43.121067 -72.655685 0.0
-0.7083 39.784599 14.50105 4.0
-0.751988 -34.392281 55.600212 2.0
-8.248325 12.084013 24.101913 2.0
-6.858375 45.451126 6.526675 4.0
-3.701678 7.997776 29.222933 2.0
-2.31115 20.1735 18.39505 2.0
-3.452089 -63.775414 60.424236 2.0
19.018999 73.503098 10.19465 3.0
-0.7287 -11.0972 46.190151 2.0
-5.863162 -40.115532 58.829468 2.0
16.001518 85.357132 6.351267 3.0
-2.52045 34.336498 -5.6098 2.0
-9.47138 56.307335 -72.126427 1.0
-4.865156 23.130121 12.373905 2.0
-12.13615 40.329201 -12.436399 2.0
-16.80945 59.657024 91.301628 4.0
-11.956087 56.655338 74.230186 4.0
18.495049 80.079895 6.9417 3.0
0.169 -34.052631 55.695385 2.0
-8.8003 52.05965 -58.353901 1.0
-7.101487 -42.406681 61.018089 2.0
-15.3933 36.121723 -68.977684 0.0
-10.36665 51.136024 -46.145874 1.0
-4.35175 -59.93565 61.33205 2.0
37.642502 91.167847 10.9207 3.0
-10.3864 50.954426 -60.892376 1.0
-20.819599 36.499687 -68.923462 0.0
-9.4596 44.260899 19.530951 4.0
-6.303717 46.932999 23.13615 4.0
-32.290325 73.35865 105.99751 4.0
-13.2931 51.016701 66.463951 4.0
-2.348133 44.718231 20.344618 4.0
-6.827233 28.297459 3.740708 2.0
-12.186701 56.318573 76.972046 4.0
-9.90425 47.103699 37.487286 4.0
27.4035 80.881577 13.025933 3.0
-7.615294 45.142189 1.344719 4.0
-26.253962 69.659378 101.80815 4.0
-23.677267 39.480984 -68.045288 0.0
-4.91428 45.305759 3.88763 4.0
6.11925 75.148102 0.80765 3.0
-5.124625 -17.29405 47.794125 2.0
-15.2467 64.842453 89.848633 4.0
3.1545 -30.117651 54.709602 2.0
19.361507 76.026184 9.525335 3.0
-9.828725 38.577999 7.261525 4.0
-9.7534 57.718498 -80.225853 1.0
-10.4803 -3.480467 40.534351 2.0
-9.3532 52.641998 -48.849651 1.0
24.049999 82.944702 8.946051 3.0
-19.634796 30.503361 -66.162285 0.0
32.319248 84.335854 13.6884 3.0
-3.393084 -29.905996 53.606766 2.0
-8.5218 34.441002 -8.47555 2.0
-8.238537 44.532349 16.421623 4.0
-1.14765 54.702248 -23.8445 3.0
-7.638134 47.577076 -16.976059 4.0
31.376059 89.806946 9.204749 3.0
-4.9433 26.67115 8.546249 2.0
-7.032183 45.768932 20.513577 4.0
-8.262325 47.010872 -18.126575 4.0
-9.59752 62.347839 79.366203 4.0
-2.88465 47.219551 32.684139 4.0
20.698425 85.489647 7.11905 3.0
-1.319367 -68.825233 58.176819 2.0
0.373603 -6.094347 41.60619 2.0
-6.97815 -77.412857 60.890701 2.0
26.987499 82.154701 12.06835 3.0
-20.711725 69.290657 98.59053 4.0
-3.13915 29.149717 6.403917 2.0
-6.425267 56.353741 66.392929 4.0
-21.7386 66.900368 97.534645 4.0
-21.255133 42.073032 -69.892082 0.0
-13.959926 61.148041 84.703926 4.0
-1.2355 58.2761 -19.16715 3.0
-2.609479 -18.113678 49.0634 2.0
-10.37235 29.931099 2.862017 2.0
-15.8261 48.07645 -75.50885 0.0
6.68205 59.938652 -10.734301 3.0
15.094692 82.60817 5.865217 3.0
-11.936649 55.029083 -67.400345 1.0
-14.25365 54.896099 83.313599 4.0
-14.957891 59.811211 86.186676 4.0
-2.23253 -66.351166 59.608444 2.0
-2.939717 -18.895218 49.321751 2.0
-2.901408 -0.486275 36.768944 2.0
1.970075 -21.762554 53.586754 2.0
-23.333071 32.576962 -66.091858 0.0
-2.833139 59.245056 -17.75736 3.0
-4.046483 48.167259 36.771858 4.0
-7.80275 47.163696 -37.095951 1.0
-3.7114 52.556702 54.859352 4.0
-9.658125 41.413776 6.0685 4.0
2.1068 -55.583801 57.28125 2.0
-19.410824 69.335426 97.587952 4.0
-13.116051 64.72245 -105.53495 1.0
-15.782675 42.799751 -72.40448 0.0
-7.8232 53.0476 -39.025349 3.0
-6.95655 46.0765 -25.0828 4.0
-3.994875 51.915184 -35.905041 3.0
-31.6759 74.694946 107.0104 4.0
7.104308 66.741638 -2.003283 3.0
-2.72092 -5.92206 41.16127 2.0
-12.36355 38.830952 -70.1633 0.0
-2.115487 23.374361 15.151637 2.0
-13.958733 36.804436 -69.345184 0.0
-11.305426 51.392097 -52.383026 1.0
-0.13 -56.950203 58.144012 2.0
-33.77108 75.75386 107.85994 4.0
1.7005 65.876129 -7.011 3.0
17.479 75.273903 7.74245 3.0
-15.115099 63.136124 88.14003 4.0
-10.787 48.529999 -43.325851 1.0
5.659675 67.841354 -2.897375 3.0
-17.408901 62.123051 92.037704 4.0
-4.622112 -4.9958 39.362423 2.0
-10.015249 -7.016831 42.040642 2.0
-16.115425 56.593174 84.955223 4.0
20.274227 84.459473 7.107163 3.0
-26.255226 72.156708 104.06547 4.0
-13.9566 62.626701 85.848602 4.0
-0.803087 19.392338 18.777199 2.0
-5.909566 27.5091 5.129816 2.0
-6.662833 42.647335 -23.314484 2.0
-7.3205 47.2285 -11.80845 4.0
-7.878875 3.227575 33.194977 2.0
-7.89098 9.964861 26.51795 2.0
-7.5231 24.2384 9.32945 2.0
-8.3188 -1.3718 37.837482 2.0
-20.22735 37.997307 -69.688095 0.0
0.389125 65.108437 -8.530708 3.0
-8.867001 52.709751 -59.852001 1.0
21.221582 83.7976 7.416011 3.0
-0.336725 -13.03255 48.616024 2.0
18.197809 74.772263 9.089658 3.0
-3.9003 46.676559 27.380699 4.0
11.252699 78.72789 4.118224 3.0
-4.63826 -34.731762 56.189327 2.0
-1.131196 -17.511784 50.007088 2.0
-15.085224 36.994347 -69.464279 0.0
-1.9188 48.6441 40.674252 4.0
-12.2503 47.069901 -32.608952 4.0
1.3373 44.896324 34.165298 4.0
-6.808562 -68.26609 63.046837 2.0
-10.682763 53.819729 -57.758461 1.0
-9.0583 22.4979 13.17855 2.0
-5.190825 47.426575 29.907524 4.0
1.59295 56.731499 -17.501202 3.0
-11.80305 57.724998 77.403 4.0
9.4914 64.184799 0.33195 3.0
-2.865 45.792999 23.395451 4.0
-0.494 46.882301 36.03775 4.0
-4.81305 54.104301 -31.7269 3.0
-27.96665 28.919601 -62.525551 0.0
-2.90375 52.4095 54.411182 4.0
-11.883067 58.34433 -80.165016 1.0
-8.3632 45.294102 -34.304649 4.0
-7.595757 -4.882556 39.897385 2.0
-9.974751 43.954849 -1.35305 4.0
-13.12865 60.705418 83.161224 4.0
-10.3401 56.922752 -86.688148 1.0
-9.362871 23.902163 11.542463 2.0
-18.43075 64.481598 92.658302 4.0
-1.062697 20.804169 17.836075 2.0
-0.774498 -16.110981 50.221638 2.0
-2.9665 42.702801 -23.395849 2.0
-8.44315 46.109951 -13.11025 4.0
-1.065767 43.874664 19.119781 4.0
-18.125837 64.333221 93.612129 4.0
-8.388676 44.891251 13.377026 4.0
-8.576034 43.877151 14.915583 4.0
4.3704 75.186798 0.24295 3.0
-5.59655 33.697727 -4.30985 2.0
-3.78915 41.897476 -20.621349 2.0
-11.117001 57.799553 -75.193199 1.0
15.764729 73.30217 7.372596 3.0
-10.0626 46.232101 -27.38945 4.0
0.384938 54.78035 -20.2614 3.0
-6.377966 54.798267 -30.434752 3.0
2.927925 68.561699 -3.79745 3.0
-4.113466 19.6579 16.971943 2.0
9.389151 77.329147 3.043475 3.0
-12.759562 37.985901 -69.874283 0.0
-1.14065 -21.543427 52.087425 2.0
-11.618584 13.890467 22.849117 2.0
-8.49795 51.040802 51.540249 4.0
-8.244249 60.895 75.550148 4.0
-6.6562 48.3652 30.844151 4.0
-1.0523 -26.9202 53.92469 2.0
-14.2719 50.509449 54.50555 4.0
-8.085501 48.6493 -29.38595 4.0
-4.096975 17.1576 19.652225 2.0
-4.356687 11.216275 25.424999 2.0
-7.974837 -40.292686 60.459801 2.0
-4.734625 41.350952 -17.6422 2.0
-10.13435 -16.850899 47.43745 2.0
30.5159 87.52095 9.542049 3.0
-5.616825 55.566826 -27.608398 3.0
-7.64985 48.141953 -34.533951 4.0
-17.713501 68.131104 94.152901 4.0
-7.9687 48.58905 -40.933197 1.0
-8.180975 47.542603 -21.27035 4.0
-1.300925 -67.107452 58.402702 2.0
-9.5321 36.0009 -7.78465 2.0
-10.3432 7.22415 29.4205 2.0
-5.928041 39.829422 -15.399 2.0
15.675384 71.596893 7.625938 3.0
-7.1028 47.103725 -13.323075 4.0
-15.559367 65.581413 89.137474 4.0
-19.179249 35.702 -68.8433 0.0
-7.31695 31.915199 -3.21005 2.0
-12.46525 64.847168 -106.65323 1.0
-3.405483 44.217518 6.081742 4.0
-10.9701 42.5252 -21.42065 2.0
-12.465566 41.872814 -20.232283 2.0
16.095684 82.974197 6.234433 3.0
-9.7088 55.088402 -74.199852 1.0
-1.6242 -46.930489 58.607338 2.0
-7.369075 45.125576 -30.986824 4.0
-13.929875 60.123775 84.087204 4.0
-10.76775 50.888 -80.611298 0.0
-1.4478 25.522499 12.64125 2.0
-20.877476 45.095276 -71.092751 0.0
-10.064725 -15.0755 45.582375 2.0
2.81995 62.8008 -9.39105 3.0
-7.861025 56.139576 -26.004677 3.0
-11.91185 40.299 -71.015549 0.0
-11.6954 29.2038 4.44585 2.0
-9.309334 46.298 -20.283548 4.0
-6.129849 50.093449 46.421837 4.0
-2.2225 41.2831 5.58075 4.0
-11.53525 59.8414 -85.535553 1.0
14.6166 72.330429 6.30875 3.0
-5.249383 -15.089901 46.091217 2.0
-6.5056 43.920349 -19.739601 4.0
-8.221156 -38.913116 59.866837 2.0
-10.335466 44.272266 -27.746717 2.0
-21.819 63.2141 98.042847 4.0
-2.803467 -37.128799 55.990334 2.0
-7.5995 7.172783 29.30195 2.0
-8.838616 44.808716 2.525267 4.0
-2.54085 -4.829488 40.141262 2.0
-5.2395 15.871201 19.74975 2.0
11.503589 72.394318 3.188917 3.0
-0.778675 58.890175 -17.888226 3.0
1.12204 -50.850079 57.876015 2.0
-8.3764 40.398499 -20.449051 2.0
-1.913474 -54.778011 59.267849 2.0
-12.372503 42.871635 -22.904629 2.0
-6.0565 50.372749 -43.655502 3.0
-9.890067 49.730801 -41.524319 1.0
-10.866225 42.605877 21.338402 4.0
-9.239651 57.8097 73.377899 4.0
-2.908 53.333427 57.085693 4.0
-11.239137 50.278709 56.214737 4.0
-2.813375 50.776348 47.882751 4.0
-4.362435 -61.007271 60.78524 2.0
-10.133274 -89.661346 62.005775 2.0
-1.7052 7.4978 31.56225 2.0
-8.968651 53.516602 -57.492599 1.0
-12.558238 54.710114 -74.405106 1.0
-2.923267 48.922565 39.306118 4.0
-7.014925 39.540627 -18.03545 2.0
-5.3225 28.456301 5.34595 2.0
-3.4091 56.920433 64.31218 4.0
-11.855518 52.937569 66.505981 4.0
-3.8442 18.9874 18.51675 2.0
-7.369295 -19.079327 49.024094 2.0
0.736475 -10.597525 47.278374 2.0
-8.3779 -79.327003 62.524151 2.0
-5.381667 48.094246 35.379265 4.0
12.63919 75.656166 4.08015 3.0
-10.1761 40.312351 14.103849 4.0
1.2959 -2.2156 37.463451 2.0
-11.670309 49.951431 54.444466 4.0
-6.0692 30.405275 1.8676 2.0
12.65555 68.9039 4.77425 3.0
-2.0306 36.454453 -9.38065 2.0
-9.206 46.456402 -21.84305 4.0
-0.3076 59.048698 -16.866249 3.0
-9.7032 47.638302 -78.437248 0.0
-8.239975 -85.067924 59.277023 2.0
-4.5256 8.7423 27.93845 2.0
-9.095776 51.7658 -60.486774 1.0
-8.195657 -9.172586 42.872894 2.0
-8.2421 32.305099 -2.87855 2.0
11.4066 70.792099 2.98095 3.0
-24.942259 35.091606 -66.357849 0.0
-2.9026 44.6521 7.62475 4.0
-11.903199 54.868336 71.29818 4.0
-0.1167 62.035736 -12.436888 3.0
-1.2772 31.1273 2.38855 2.0
-16.173565 58.910179 89.212891 4.0
-10.923925 47.397526 40.376774 4.0
-8.890925 -73.682877 64.987022 2.0
-2.22425 -3.430906 39.090652 2.0
-9.667876 50.933887 56.35635 4.0
-6.1493 -60.509598 63.086098 2.0
-11.823901 41.547455 23.503128 4.0
-29.286514 74.212479 105.71716 4.0
-4.598017 23.937033 11.518566 2.0
-20.66235 35.36795 -68.156998 0.0
13.6259 72.146194 5.4886 3.0
-3.463369 -59.248043 60.387543 2.0
-4.985375 56.428677 65.509895 4.0
-7.918583 24.822233 8.839801 2.0
-1.3862 40.286499 14.34125 4.0
-1.0846 -18.933224 50.57885 2.0
-10.7619 47.343102 -45.801949 1.0
-9.8283 47.353951 -30.510162 4.0
-27.164907 72.154099 103.63424 4.0
-10.347387 52.637562 61.599323 4.0
-3.431075 -4.3374 39.456429 2.0
0.38745 13.19065 24.7118 2.0
-8.2731 55.285553 64.152428 4.0
-5.537583 -48.393677 61.610237 2.0
-6.42155 58.741325 70.920128 4.0
-4.36755 -62.3685 60.928375 2.0
-6.653088 -8.097338 41.821911 2.0
-11.387184 61.490189 80.902603 4.0
-36.903999 78.354301 110.21545 4.0
-1.5916 39.833401 13.36325 4.0
-2.6656 16.1145 21.886551 2.0
9.59655 76.154648 2.8087 3.0
-6.48625 -82.844254 58.703251 2.0
-6.159806 -76.974838 59.630207 2.0
-10.3674 41.351852 18.482674 4.0
-7.046775 25.044125 7.926375 2.0
-25.341152 66.457397 101.34131 4.0
-9.089306 -4.922166 40.683006 2.0
-5.868033 -72.510582 60.765446 2.0
-14.6294 51.483501 70.25415 4.0
-3.877714 -5.824867 40.412373 2.0
-9.76725 43.688301 -12.18175 4.0
-1.13725 8.378651 31.0975 2.0
-39.867699 78.652901 111.32815 4.0
-9.2613 50.072403 -54.243202 1.0
-9.66395 46.222298 -40.612049 1.0
15.875167 70.911781 8.122155 3.0
-10.836 41.182301 16.168051 4.0
-20.4725 63.1698 96.326851 4.0
-6.304508 23.8573 9.395025 2.0
-8.631267 44.347069 0.560783 4.0
-5.6763 13.40065 21.7022 2.0
-12.041426 55.940437 73.370117 4.0
0.09095 15.56125 22.039551 2.0
-4.72435 49.275848 42.564301 4.0
-7.040338 45.13171 11.204825 4.0
-10.90575 51.920799 -43.311401 1.0
-10.4158 52.669998 63.248249 4.0
12.0601 67.066597 4.47055 3.0
-13.096251 51.806648 66.044525 4.0
-22.122002 31.619358 -66.418335 0.0
-8.761576 51.761749 -57.418999 1.0
1.907263 63.978661 -9.092913 3.0
-19.161699 65.886597 94.241547 4.0
-11.009523 53.252983 67.897873 4.0
-11.4503 52.229599 63.683098 4.0
-15.43375 66.62085 91.858154 4.0
14.632258 68.815331 7.264683 3.0
-9.839022 43.949196 24.112923 4.0
0.05055 -14.635933 50.217949 2.0
-11.7395 55.902771 74.930664 4.0
-8.1567 -83.213402 59.843449 2.0
-9.165276 49.321548 -36.732498 1.0
-6.126738 55.929626 63.398849 4.0
-4.951187 -20.161589 49.39249 2.0
-12.896225 53.935947 73.576614 4.0
-7.7124 50.056801 -42.049351 1.0
-25.879995 33.822376 -64.972679 0.0
-11.8586 65.041603 -112.02295 1.0
-5.80275 46.345673 15.463896 4.0
-5.23775 51.042175 -40.308998 3.0
-4.0855 45.033699 5.01015 4.0
-1.990445 -70.393036 58.867226 2.0
-12.764375 45.172852 32.874123 4.0
-9.7205 55.978016 -66.08374 1.0
24.742241 80.240967 11.502014 3.0
-21.4023 65.635002 97.03215 4.0
-11.452 29.82 3.48375 2.0
-1.70945 51.557999 51.466 4.0
12.48155 70.069 4.48455 3.0
0.713175 -7.305175 43.271149 2.0
-8.333 -23.45455 52.049351 2.0
1.8684 46.142502 36.746552 4.0
-2.8875 47.731274 35.664398 4.0
-15.343901 58.621399 85.163452 4.0
-11.865125 52.603874 69.227264 4.0
-2.35052 -11.10644 45.26701 2.0
-7.016 56.034302 -25.990551 3.0
-10.840549 56.193073 -67.630554 1.0
-3.7276 23.513533 13.080483 2.0
-5.1275 39.76495 -1.36125 4.0
-3.9687 20.8002 16.62645 2.0
-0.520975 -6.493225 42.301723 2.0
-8.447349 51.068802 -52.775497 1.0
10.346149 73.065002 2.35105 3.0
-1.908 55.338448 -24.00815 3.0
-7.0687 -64.946045 64.39473 2.0
-4.363983 55.935837 63.159634 4.0
-4.906 46.130634 19.170376 4.0
-6.6647 -63.036301 63.823349 2.0
-12.5293 55.769402 -85.157547 0.0
-3.697887 43.033573 -1.364575 4.0
-8.954601 49.613602 -51.483849 1.0
-2.342325 -30.852249 54.636002 2.0
-0.74255 -64.348732 58.166073 2.0
-3.3887 39.913002 2.9528 4.0
-3.61935 34.863075 -5.942825 2.0
-16.576265 43.668083 -72.736145 0.0
-31.118425 71.62355 104.3968 4.0
-14.241899 35.500252 -68.813148 0.0
-9.936 45.237099 -24.859949 4.0
-7.362205 18.792168 16.117676 2.0
-8.937032 43.883404 1.424126 4.0
3.166 58.02285 -15.41255 3.0
23.127251 80.063095 10.176451 3.0
-3.385908 31.532 1.96215 2.0
-4.97205 0.048275 35.841728 2.0
-11.2059 49.689201 -55.114449 1.0
-9.43165 40.616024 -0.743825 4.0
17.89212 75.489044 8.503558 3.0
-19.419012 65.325661 95.62851 4.0
-6.1054 -48.643002 62.258884 2.0
-10.0746 53.495453 -71.610451 1.0
0.65215 -11.3961 48.563652 2.0
8.647818 79.332504 3.731308 3.0
-11.29895 60.527351 -88.243195 1.0
-5.885825 -58.951424 62.617523 2.0
-15.692562 58.080975 87.747971 4.0
-13.633183 52.035011 74.813332 4.0
-6.12554 -14.427115 45.861275 2.0
-5.786675 28.33165 4.108775 2.0
-9.6138 43.265301 9.57495 4.0
-10.1389 63.361301 80.625847 4.0
-2.5744 39.4249 6.8754 4.0
0.0575 -61.935249 57.482727 2.0
-10.464638 62.380913 80.407547 4.0
-12.7017 64.767403 -109.02295 1.0
-12.903151 29.0807 3.6502 2.0
-9.532493 43.361721 20.556667 4.0
16.898136 77.68457 6.711289 3.0
-8.630267 -56.197701 63.605499 2.0
-18.605118 66.609299 93.89241 4.0
-6.444804 3.581272 32.169899 2.0
-13.59955 61.09005 -97.79425 1.0
-8.231434 48.117264 -24.928059 4.0
-24.719851 41.68655 -67.704849 0.0
-5.551993 45.729084 4.288179 4.0
-7.143 40.3568 -20.383551 2.0
-4.3761 -7.09595 40.715675 2.0
-10.593725 51.984451 60.769825 4.0
-9.14279 43.964924 -0.519041 4.0
-9.9092 52.643398 -69.183052 1.0
-11.137976 50.204002 -47.583176 1.0
-1.693849 52.747787 55.959412 4.0
-4.585625 39.685776 -13.927925 2.0
-0.52725 41.37405 15.604225 4.0
-3.098683 50.518169 46.903202 4.0
-4.285 38.599499 2.80555 4.0
-4.068759 -66.803604 60.478088 2.0
-9.3216 41.272999 -24.27915 2.0
-15.0229 57.791 83.967651 4.0
-11.219826 57.393147 73.676598 4.0
-5.574887 47.978863 34.027237 4.0
-6.418855 48.425827 -37.111851 1.0
-3.734715 45.100754 9.390397 4.0
13.33585 69.709251 5.6667 3.0
-5.3672 43.080868 -11.249118 4.0
-6.099699 57.835999 69.067818 4.0
-5.310454 57.403702 -19.990017 3.0
-11.9037 65.113602 -108.09605 1.0
-12.3316 46.207901 -30.518101 4.0
-6.763825 -80.443748 59.250549 2.0
-10.5748 46.8181 -75.473549 0.0
-7.869125 47.805946 34.12965 4.0
-12.6614 28.578651 4.81305 2.0
-7.9447 47.208599 -39.024651 1.0
-12.0748 63.061451 81.750153 4.0
-8.0325 -76.9748 64.353149 2.0
-10.1079 34.7449 -5.103183 2.0
-6.2458 -70.903656 62.547798 2.0
23.822399 90.676399 7.773975 3.0
-7.2304 -69.025497 63.545151 2.0
-5.32658 45.790512 9.634853 4.0
-2.90665 49.488548 43.6768 4.0
-10.9731 48.632 -47.298248 1.0
2.75295 71.788498 -1.81435 3.0
-11.0186 49.42905 50.79995 4.0
-1.9746 -16.361801 49.067497 2.0
-10.4221 49.574402 -79.885948 0.0
-3.494775 -47.280342 59.202766 2.0
-5.6599 38.06945 -11.56315 2.0
-14.106 50.744598 67.688751 4.0
-8.713551 44.486473 8.1235 4.0
-5.969864 45.373573 -15.39155 4.0
-7.7648 -79.677696 60.68425 2.0
-6.420721 45.781601 10.006931 4.0
-12.911167 43.906567 28.672548 4.0
-6.093375 59.237526 72.466713 4.0
-3.87255 6.5654 30.892551 2.0
-4.064939 47.53207 32.84721 4.0
-10.918275 53.861324 66.511124 4.0
27.195332 79.921738 13.417063 3.0
-22.282 34.974602 -67.87085 0.0
-12.3982 58.911247 -84.979095 1.0
-6.38261 43.313404 -16.931679 4.0
-9.674225 44.578575 -11.326124 4.0
-0.732242 43.573814 22.575706 4.0
-5.10482 -42.669903 59.259331 2.0
0.709633 4.382067 33.8069 2.0
-6.69925 30.93055 0.1184 2.0
-0.9556 -14.615951 48.937027 2.0
16.855801 76.086151 7.17165 3.0
-1.103262 -58.062363 58.697899 2.0
-34.590469 74.650688 107.18643 4.0
-1.01345 65.515083 -8.559851 3.0
-1.3209 56.310902 -21.31045 3.0
-10.863825 45.441776 -30.34045 2.0
-13.311 53.3018 79.005051 4.0
2.862483 -40.303551 57.769897 2.0
-9.838717 51.854351 59.840832 4.0
-3.285675 -44.689674 58.420425 2.0
-9.789925 46.455902 -41.609474 1.0
-5.1675 -64.235901 61.906349 2.0
-7.147775 47.585098 -17.925949 4.0
-6.0721 56.514549 65.078445 4.0
-12.802433 52.639923 69.366379 4.0
-11.204458 39.989025 18.54496 4.0
-0.54335 42.070099 16.261051 4.0
-0.095233 -27.754568 53.964081 2.0
-38.812901 77.593903 109.97105 4.0
-8.315124 45.384449 -7.758575 4.0
-7.0543 45.138451 -26.2318 4.0
-12.609076 52.311123 66.686096 4.0
-12.3204 42.860699 -22.063017 2.0
-4.09895 44.771801 -2.173 4.0
27.104967 91.59108 8.236087 3.0
-8.510313 44.002251 5.240175 4.0
-7.346334 -54.653831 62.79129 2.0
-13.332951 64.808197 -107.6142 1.0
-4.377357 -9.38209 42.413177 2.0
-20.247734 67.555832 97.108307 4.0
-7.271666 47.593304 -37.620152 1.0
-2.86885 57.066948 -24.60585 3.0
-6.8553 45.152397 -25.34655 4.0
-2.0525 4.80865 32.990349 2.0
-5.516667 -40.905636 58.917751 2.0
-2.5114 64.491302 -10.16425 3.0
-6.707538 -29.214972 55.087666 2.0
-1.355238 52.126236 54.391098 4.0
-20.5299 64.279602 96.052849 4.0
-0.156625 -65.931526 57.845749 2.0
-1.92472 -23.201229 51.832027 2.0
-10.894184 42.634914 -72.38662 0.0
-2.9893 26.641199 10.38635 2.0
-9.18915 43.030102 4.669125 4.0
-11.3383 49.621201 52.596252 4.0
0.282425 57.681023 -17.614151 3.0
-11.580288 41.560699 -18.808275 2.0
-18.133751 35.133102 -68.604156 0.0
-12.873449 60.466801 -92.170349 1.0
-12.779984 47.62281 40.395645 4.0
-14.188175 51.125504 64.04155 4.0
-6.0271 52.801701 55.993252 4.0
-3.9417 63.604752 -12.049601 3.0
-1.40017 1.881291 35.226288 2.0
-4.445502 -13.962914 45.166023 2.0
-9.0979 50.864403 -57.191078 1.0
-7.970258 -6.877378 41.526943 2.0
-0.211675 55.651024 -20.236076 3.0
-12.07055 41.81765 -71.602448 0.0
-1.6852 30.912849 3.9624 2.0
-8.5683 -72.5047 65.221046 2.0
-10.65635 19.640949 17.23315 2.0
-24.643375 27.356251 -63.118576 0.0
0.177258 -32.607899 55.071144 2.0
-14.214149 53.953827 79.435776 4.0
-5.5269 48.029701 -34.594749 4.0
-13.8903 59.147148 -94.443848 1.0
-12.12365 10.712367 25.563143 2.0
-7.974045 59.906063 74.240875 4.0
-1.0632 44.850437 26.794273 4.0
-11.365025 47.200127 38.844002 4.0
-13.824667 58.160164 83.005867 4.0
-6.695 44.460602 -28.22505 2.0
-11.002416 54.701767 70.644295 4.0
-14.114329 58.875195 83.886002 4.0
-0.4822 45.75 32.137951 4.0
-14.18785 63.061699 85.172501 4.0
-0.9922 -62.035198 58.508549 2.0
1.0891 -49.941456 58.061077 2.0
-6.123783 19.378485 16.0438 2.0
-11.89465 6.408 29.828751 2.0
-5.246983 22.277441 13.873466 2.0
-1.89935 51.894833 53.116699 4.0
-7.388 51.524101 -41.778851 3.0
-8.260637 27.403162 4.702296 2.0
13.969799 76.081581 4.925645 3.0
-5.5239 27.65345 6.68225 2.0
-7.315513 -34.019753 57.286125 2.0
-14.81885 50.771477 59.748199 4.0
-10.178225 51.462502 -45.306751 1.0
-16.85125 39.077648 -70.618446 0.0
27.728451 87.055481 8.63985 3.0
20.112722 76.903465 9.889527 3.0
-1.880419 -36.792534 56.202919 2.0
-17.336983 59.416 90.674683 4.0
-0.3415 -58.625999 58.366344 2.0
-14.85095 56.548134 84.7827 4.0
-8.858733 -38.244484 59.9417 2.0
-19.854599 61.926201 95.8909 4.0
2.44775 -28.750999 54.862099 2.0
-10.9478 49.087399 -41.171299 1.0
-12.169775 44.776875 -27.365475 2.0
-8.68695 54.653999 62.9114 4.0
-19.990326 29.845249 -65.756401 0.0
-9.380533 45.515419 30.01255 4.0
-0.5242 16.9799 20.581249 2.0
18.748835 87.402916 6.711725 3.0
11.5828 77.056168 3.8963 3.0
-11.79 51.174 -57.582649 1.0
-9.382832 54.919544 -61.664146 1.0
12.671827 80.710159 5.027946 3.0
-7.59495 53.424999 -35.959202 3.0
-1.6351 40.800701 8.90155 4.0
27.079399 84.901154 9.401501 3.0
-6.725629 -1.383479 36.793671 2.0
-34.390202 76.807198 109.00795 4.0
-12.6385 45.733002 -29.88965 2.0
-9.369083 51.938335 -47.093319 1.0
-3.7859 38.770302 4.02275 4.0
-4.029075 -64.962402 60.982075 2.0
-2.897612 22.080479 15.661819 2.0
-9.2101 54.072701 -67.317245 1.0
-2.22205 18.697311 19.140522 2.0
-26.225447 39.674797 -66.125076 0.0
-18.067699 59.848297 92.6315 4.0
5.0865 67.657196 -3.5026 3.0
-4.6905 31.69585 0.58875 2.0
-11.814025 59.558327 78.21373 4.0
-3.7006 44.671898 7.2703 4.0
-8.2435 44.2197 6.58635 4.0
10.786625 68.323853 2.66995 3.0
-22.120241 40.660408 -69.231552 0.0
-19.927465 42.494785 -70.902954 0.0
-0.20495 -62.351051 58.334499 2.0
-4.41695 -69.238678 60.50605 2.0
-8.126583 44.711102 17.855499 4.0
-11.37805 25.269051 10.806049 2.0
-3.768033 48.464294 38.331879 4.0
-9.3582 33.099701 -3.11475 2.0
-8.4688 35.7589 -9.23305 2.0
0.5557 -63.495251 57.5499 2.0
-4.90915 -53.004623 60.794899 2.0
-24.154449 67.724564 100.68873 4.0
12.337214 79.650093 4.701142 3.0
-5.897483 54.127983 59.436401 4.0
-16.028299 63.991093 89.771935 4.0
-33.15395 72.685974 105.5598 4.0
17.979 73.049698 9.54575 3.0
-7.75115 48.51075 37.969498 4.0
-0.182472 12.310277 25.851912 2.0
31.953526 91.941803 8.956825 3.0
-9.325001 18.484249 17.921749 2.0
-23.3827 26.478701 -63.552052 0.0
-16.086349 57.480301 88.398605 4.0
-9.900713 42.616119 19.901382 4.0
-2.018125 55.009499 60.35775 4.0
-8.6256 43.641346 12.60965 4.0
-6.359513 1.982014 33.529808 2.0
0.361375 62.604378 -11.47205 3.0
-19.380836 34.158783 -68.085335 0.0
-1.992825 61.07085 -14.487725 3.0
-11.600667 61.001717 79.738937 4.0
21.145752 74.919281 11.483833 3.0
9.113662 63.967747 -0.782958 3.0
-9.448563 43.098824 -0.177462 4.0
-24.198044 42.424999 -68.343864 0.0
-16.810452 60.1693 89.188698 4.0
-3.368 14.9586 22.977249 2.0
-13.5244 57.2388 -88.249649 1.0
-2.3145 32.489269 -0.52535 2.0
-11.904 53.628399 72.359947 4.0
-10.01656 27.150883 7.147044 2.0
-1.4822 -10.8475 45.368301 2.0
0.682154 -46.601204 58.101982 2.0
-28.326666 69.496605 102.72648 4.0
-9.707225 55.937302 -76.044075 1.0
-12.623862 57.140644 -79.979591 1.0
0.5974 -19.008301 52.815151 2.0
-4.664683 -41.549034 58.570801 2.0
-14.770246 57.081619 83.539368 4.0
-5.2548 -61.552773 61.591026 2.0
-11.93085 62.720299 -100.05335 1.0
-15.96025 50.684849 -76.268402 0.0
-14.3507 50.4851 63.38155 4.0
-2.93505 9.716 28.540249 2.0
-17.492947 67.626572 93.533325 4.0
-0.5306 -3.8679 39.24765 2.0
-9.369433 60.343597 76.052803 4.0
-18.190149 36.427399 -69.115051 0.0
-8.3398 36.292801 -10.82645 2.0
-25.733265 36.402855 -65.945023 0.0
-9.586912 14.657812 21.934387 2.0
-4.7074 43.924347 -7.4709 4.0
-13.5225 56.653648 -84.133743 1.0
-7.194775 -43.395138 61.698589 2.0
-6.15036 -56.877609 62.52953 2.0
-5.388171 -21.109283 50.085091 2.0
-12.152062 51.028126 63.261387 4.0
-13.623175 64.720749 -109.3444 1.0
2.89885 66.57093 -5.602117 3.0
-11.447 54.632351 72.180977 4.0
-2.6046 0.376125 36.381073 2.0
-12.171928 33.169689 -3.172929 2.0
-10.889999 41.184502 17.1812 4.0
-6.47515 47.81675 26.74785 4.0
-6.401625 -47.159725 62.666176 2.0
2.224 69.859398 -2.971617 3.0
-4.860837 45.619415 12.249725 4.0
-10.87975 60.64748 78.220703 4.0
-11.6335 52.916946 -58.820847 1.0
-2.595883 -16.039856 47.871136 2.0
-21.629282 43.654202 -70.3339 0.0
-11.569 38.885574 -70.41713 0.0
-18.486116 34.368141 -68.198616 0.0
-13.767075 64.318924 85.405525 4.0
8.004825 69.173477 -0.762225 3.0
-10.3876 47.3526 -36.120449 4.0
-18.742817 43.141792 -71.647629 0.0
13.063534 72.932762 4.48445 3.0
-9.409866 49.60675 -39.253105 1.0
-19.823601 69.092499 96.587349 4.0
-6.331214 5.548966 30.121077 2.0
-12.759125 54.926178 74.55127 4.0
-4.842625 6.6578 30.120449 2.0
-0.39031 -60.733524 58.045502 2.0
-0.37865 -68.078247 58.10495 2.0
28.874983 82.399559 13.119625 3.0
-10.415976 58.023102 -90.634644 1.0
-10.59332 56.807636 71.227745 4.0
-9.681049 46.815903 -42.767448 1.0
-8.4288 49.9813 -46.003849 1.0
20.655876 82.677925 7.3786 3.0
-6.528912 -54.9841 62.459087 2.0
-7.107216 -75.483269 61.91045 2.0
-12.679213 64.902603 -110.7981 1.0
-9.65725 50.395126 52.842751 4.0
-7.435467 -61.320145 64.012711 2.0
-0.399225 60.640148 -14.8456 3.0
-16.5145 57.7523 89.638748 4.0
-5.4583 46.777 24.49715 4.0
-10.932325 33.436386 -2.86855 2.0
-3.407525 49.129875 41.671398 4.0
-7.019553 46.974274 29.875505 4.0
-13.0358 -91.321701 61.947701 2.0
-10.100025 55.161148 68.900497 4.0
-10.343975 53.495625 -55.41745 1.0
-6.455475 56.960625 -20.5471 3.0
-3.413389 -54.146057 59.911011 2.0
-1.1968 28.738701 7.45755 2.0
33.275902 85.832397 13.08565 3.0
20.613972 80.513 8.305679 3.0
25.991446 82.411324 10.825346 3.0
-16.633516 40.418457 -71.20668 0.0
-14.9038 50.284901 49.128052 4.0
-5.7438 -73.981949 60.770203 2.0
-24.046949 70.157021 101.71027 4.0
-12.3218 60.604534 -90.871239 1.0
-14.5984 60.849751 85.184448 4.0
-8.1967 37.027122 -12.73415 2.0
-6.998375 2.961925 32.714474 2.0
0.792925 -37.126675 56.772224 2.0
-6.08895 -52.627357 61.901585 2.0
-7.4158 47.390724 -21.850449 4.0
1.593275 -44.214302 57.997971 2.0
-9.415361 49.353466 -37.962517 1.0
-4.2878 51.611801 50.269699 4.0
-7.5368 44.75135 11.828449 4.0
-8.560551 49.146549 44.9631 4.0
-2.8964 -10.547951 44.879051 2.0
18.176805 77.880058 7.661735 3.0
-9.3564 44.880901 -1.88235 4.0
-6.459137 56.648285 -23.254425 3.0
-10.046742 35.529152 -6.449631 2.0
-13.0076 53.9505 -82.960449 0.0
0.1246 0.3697 35.943951 2.0
-8.098101 -63.304859 64.705231 2.0
-2.611 65.261246 -9.4429 3.0
-11.18985 53.88345 70.010223 4.0
-4.030525 -18.043007 47.852905 2.0
-6.14815 49.724998 43.62505 4.0
-25.88505 29.261501 -63.935101 0.0
-1.658517 63.738029 -10.988916 3.0
-9.2886 42.971901 -26.962549 2.0
1.025356 61.593437 -13.279056 3.0
-2.007379 -26.217026 52.86898 2.0
22.923489 84.365829 7.745962 3.0
-8.434 62.409599 76.744453 4.0
-1.375987 -31.901186 55.114426 2.0
-6.225471 6.676683 28.825245 2.0
-13.979233 39.37336 -70.681427 0.0
-2.73045 41.1035 3.20585 4.0
-6.459198 -42.458298 60.403545 2.0
-0.13755 -11.3092 47.007698 2.0
-4.374422 -43.067753 58.865295 2.0
-6.11795 51.156525 -40.621849 3.0
29.595207 86.529297 10.025258 3.0
2.002267 -40.648956 57.702148 2.0
-4.3241 40.36285 -2.6087 4.0
-3.76195 -10.548399 44.280788 2.0
-6.999683 -14.647309 46.132092 2.0
-18.440342 62.608841 92.906708 4.0
4.37875 70.316948 -1.84565 3.0
-5.8726 57.144402 66.57045 4.0
-6.153645 54.601933 60.55368 4.0
-8.5998 48.550049 -44.579552 1.0
-17.2591 58.3498 89.462502 4.0
-7.08275 47.844498 -20.3745 4.0
-1.86766 -43.414448 58.13641 2.0
-11.889001 -90.737747 61.931 2.0
-3.11405 -9.77475 43.439449 2.0
-6.20535 -62.026299 62.636398 2.0
4.067525 62.861416 -8.205842 3.0
-8.905024 53.238098 -56.599575 1.0
3.3433 63.610397 -8.816826 3.0
-6.87315 46.132381 15.986708 4.0
-4.371175 30.235374 3.406725 2.0
-8.715799 46.923653 -20.043949 4.0
-10.090151 47.394474 -34.390724 4.0
-10.83005 39.747375 16.010124 4.0
-10.393349 25.375929 10.034992 2.0
4.9864 58.112999 -15.01755 3.0
-7.988 45.069565 10.403759 4.0
-3.7512 57.369194 65.215385 4.0
-7.4122 61.195599 76.024048 4.0
-6.6513 9.5973 25.66395 2.0
-3.0838 51.591675 50.824425 4.0
-8.036979 5.599016 31.047804 2.0
-8.6103 39.7481 -18.725349 2.0
-13.6605 53.127819 74.617699 4.0
-12.542 54.294449 72.684052 4.0
-7.2276 52.541801 55.786549 4.0
-3.68325 39.524902 -13.2784 2.0
17.119211 76.856621 7.068006 3.0
0.325267 42.352467 23.337606 4.0
-7.906267 53.066967 58.57782 4.0
-8.583647 53.367516 59.529655 4.0
-12.611461 58.848225 80.29715 4.0
5.559683 65.339386 -4.412833 3.0
-1.972363 16.718513 20.896074 2.0
-14.340591 62.879707 86.544312 4.0
-11.2929 56.108265 70.704613 4.0
29.590267 88.285393 8.896999 3.0
-7.382234 45.602795 12.917053 4.0
-12.751699 52.947052 -81.373802 0.0
-1.6398 -45.101151 58.166149 2.0
-12.10335 55.403152 -69.676147 1.0
-5.51955 55.026901 -31.07515 3.0
-4.370975 1.328033 34.737991 2.0
-3.741588 2.350358 34.134506 2.0
-8.44 -65.4897 65.511147 2.0
-5.9178 38.555401 -13.01085 2.0
-15.870375 59.959229 88.611732 4.0
-19.403675 64.657082 95.155464 4.0
-0.40845 50.936951 50.801903 4.0
-6.380842 54.188919 -35.54705 3.0
-2.881925 -60.129227 60.198425 2.0
-13.889904 52.032478 71.383797 4.0
-9.148063 31.386305 -0.367175 2.0
-5.3379 58.89175 -16.837151 3.0
-9.0735 40.823502 -20.51215 2.0
-21.428133 68.870491 99.072235 4.0
-3.4793 57.157249 -22.966249 3.0
15.795343 79.008797 6.028151 3.0
5.9398 66.708588 -4.004687 3.0
-1.994242 -35.898491 55.827354 2.0
-14.129462 44.641113 32.226814 4.0
14.88625 84.334106 5.9917 3.0
-0.767195 -47.322273 58.395744 2.0
-7.7914 -74.820702 63.63245 2.0
-2.2989 58.259251 -20.301649 3.0
-12.6157 56.770802 76.323349 4.0
-9.326651 42.372398 7.736125 4.0
-8.8685 43.038528 -29.207676 2.0
-8.889734 49.415665 48.69643 4.0
20.717949 78.663399 9.10205 3.0
-12.205575 50.281624 55.302677 4.0
32.60535 85.340897 12.87295 3.0
-7.866 49.282852 42.052353 4.0
-8.378567 50.04541 47.387714 4.0
-10.319383 49.141567 49.46413 4.0
-10.629205 -16.569443 46.67197 2.0
-3.421817 25.289215 12.389884 2.0
10.025825 66.153305 1.93015 3.0
0.5972 60.063499 -14.64465 3.0
-12.088041 52.964443 -62.852081 1.0
-6.632767 45.631298 14.460284 4.0
-25.396851 71.908188 103.57858 4.0
-7.099306 51.877922 54.136959 4.0
9.339449 73.158699 1.9365 3.0
-18.314699 40.872269 -71.17688 0.0
25.400999 88.978226 7.812875 3.0
-3.135275 51.272423 49.04245 4.0
-7.16175 -58.943676 63.577999 2.0
1.929967 59.12738 -14.529193 3.0
-12.538401 64.959877 -102.58015 1.0
-10.49905 45.578552 31.01545 4.0
-9.63695 44.91235 -15.83415 4.0
-11.51505 50.899349 -53.331951 1.0
-16.695049 36.200752 -69.119705 0.0
18.06815 78.904129 6.860975 3.0
-9.4209 53.737499 64.075249 4.0
-23.595488 69.695389 100.28838 4.0
-8.367025 48.424522 43.139225 4.0
-6.186035 -43.997986 60.989044 2.0
-6.4931 41.436699 -14.83205 4.0
-10.875376 26.655874 8.392 2.0
-1.1872 -65.845856 58.836777 2.0
-12.6654 49.65435 51.17955 4.0
-10.627974 50.456249 -58.760925 1.0
10.347851 71.516953 2.62315 3.0
-3.1445 8.4107 29.649849 2.0
-8.858725 46.743824 32.262501 4.0
-16.493549 61.169998 90.08725 4.0
-9.190067 62.525215 78.049637 4.0
-5.1675 -57.3899 61.835751 2.0
30.124241 89.056442 9.02937 3.0
-11.611372 43.988522 -73.013107 0.0
-4.338313 4.714721 31.647854 2.0
17.429495 72.11969 9.175461 3.0
-4.86905 57.019051 -22.20505 3.0
-5.92375 -63.425552 63.062302 2.0
-12.2205 44.429699 -26.05895 2.0
-14.2272 63.110401 -112.34415 1.0
-13.8394 56.365101 80.343048 4.0
-3.6221 28.0415 7.92135 2.0
-5.8958 41.8204 -20.284349 2.0
-2.36275 21.07201 17.102242 2.0
-9.53535 -17.581249 48.257797 2.0
-24.560799 35.687851 -66.873795 0.0
-9.959749 53.100151 63.917099 4.0
-8.56945 45.672401 -36.074551 4.0
-13.88965 54.8498 80.1492 4.0
-3.4991 18.323601 19.40855 2.0
-5.828041 -3.718931 38.332191 2.0
-7.4117 47.378601 -34.67585 4.0
-9.641706 41.658058 3.632209 4.0
7.2839 65.106499 -2.37735 3.0
-11.6415 16.356899 20.89395 2.0
-7.000172 -25.322784 53.219379 2.0
-4.91045 58.606998 69.316452 4.0
-10.241967 59.324368 -85.685951 1.0
-7.914825 -66.63887 64.927727 2.0
-6.1428 42.372902 -13.67595 4.0
-4.26765 25.418026 11.297462 2.0
-4.368174 52.19862 53.642109 4.0
-18.625063 40.130951 -70.56208 0.0
-5.203863 13.35355 22.666637 2.0
-7.57905 47.682251 -25.625851 4.0
-8.521 42.009899 -25.989651 2.0
-22.958851 70.669617 100.42963 4.0
-6.409137 14.360981 20.564175 2.0
-2.878493 3.511334 33.551327 2.0
-4.163906 -44.638763 59.139347 2.0
0.570589 43.338688 27.340006 4.0
-5.928831 -1.386836 36.434128 2.0
17.6126 73.977501 9.1647 3.0
15.49505 78.047501 5.8103 3.0
-21.900501 32.57645 -66.913551 0.0
-12.6343 55.885197 75.575653 4.0
-7.091484 -31.411917 56.217865 2.0
