# .PCD v0.7 - Point Cloud Data file format
VERSION 0.7
FIELDS x y z label
SIZE 4 4 4 4
TYPE F F F U
COUNT 1 1 1 1
WIDTH 1448
HEIGHT 1
VIEWPOINT 0 0 0 1 0 0 0
POINTS 1448
DATA ascii
4.330433 -14.797299 31.164217 0.0
51.123672 98.591278 -2.486296 2.0
3.7174 52.810551 26.750601 1.0
18.857243 70.162552 -27.517315 2.0
6.66905 21.0567 5.55545 0.0
-14.542875 70.541672 88.817451 1.0
-7.360232 57.656349 59.77417 1.0
11.652458 66.601631 -90.138954 4.0
1.3793 -22.801451 33.304001 0.0
-5.883425 -62.885502 41.23175 0.0
-12.861938 69.174728 85.269363 1.0
5.02025 2.3584 20.7925 0.0
2.20815 67.578697 67.831551 1.0
20.325624 74.894379 -20.866024 2.0
-10.509649 -80.351105 39.719101 0.0
-5.536331 61.423439 66.134308 1.0
-1.6032 -69.435654 37.237701 0.0
-1.420966 -36.44952 38.229027 0.0
10.280519 56.876526 -41.912483 4.0
-3.644367 -33.756256 38.329464 0.0
14.923651 61.7285 -96.01255 3.0
6.428 -5.35785 26.5207 0.0
22.403 73.43795 -21.2369 2.0
8.1073 50.25655 -8.8575 1.0
12.8084 44.65765 -22.080299 0.0
12.360367 50.616318 36.547947 1.0
-40.298336 79.108345 116.9215 1.0
11.175587 58.145367 -44.003834 4.0
1.607969 27.115522 1.607431 0.0
14.08215 44.6465 -22.605549 0.0
13.616275 68.045242 -91.939987 4.0
10.9827 53.355751 -0.0946 1.0
9.788658 54.19706 23.534042 1.0
11.680799 46.939751 -2.386625 1.0
9.802954 43.342701 -22.994831 0.0
8.609325 52.368401 -24.740326 1.0
12.196308 72.364433 -122.26353 4.0
9.3453 46.521851 -83.336304 3.0
3.453636 51.418858 23.248539 1.0
32.804775 82.054871 -7.861237 2.0
29.020462 74.056648 -12.181843 2.0
7.8805 59.54686 -89.585114 3.0
11.053699 65.362999 -97.8722 3.0
-19.386332 -101.83353 32.414551 0.0
3.745525 -54.433426 40.276474 0.0
6.1333 60.38065 -88.044701 3.0
8.69422 53.302551 -11.9086 1.0
8.912168 51.605251 3.144683 1.0
10.84435 56.920101 -35.027847 4.0
13.40625 54.096672 33.084206 1.0
4.431117 56.589966 37.840405 1.0
-0.766613 -9.140738 28.575172 0.0
40.752098 92.917198 -4.51765 2.0
4.64545 56.095001 33.078499 1.0
22.594059 65.057167 -30.269962 2.0
5.813825 50.533543 5.259772 1.0
-28.37958 75.985023 108.22784 1.0
14.870258 65.567902 -39.204948 2.0
11.375299 54.109398 -18.903751 1.0
13.615887 65.899139 -101.92048 4.0
10.994213 59.634331 -55.146523 4.0
12.401626 49.178799 -12.646275 1.0
10.409122 57.829529 -60.208408 4.0
-14.873751 65.542549 88.685852 1.0
5.641269 49.019135 -84.816048 3.0
12.37083 54.145691 -37.817673 4.0
24.702425 71.410027 -20.8841 2.0
2.64905 22.82025 6.2823 0.0
7.304386 -11.631372 29.189606 0.0
6.615717 48.147903 -84.425377 3.0
14.76553 67.943909 -106.57843 4.0
10.437 50.601551 -25.7439 1.0
12.748571 62.499588 -51.294197 2.0
4.594017 53.687874 27.102524 1.0
-5.6225 -57.199749 42.689301 0.0
13.369337 69.19384 -119.23236 4.0
6.315933 54.674786 23.951035 1.0
2.220394 50.640099 27.420586 1.0
13.369878 67.603867 -110.93323 4.0
11.495675 67.129456 -98.558197 4.0
15.145066 60.622784 -52.855885 2.0
-17.855181 70.650467 95.233459 1.0
-5.366117 -63.665985 40.60672 0.0
8.09595 38.687798 -15.60015 0.0
10.4283 53.448566 10.648616 1.0
-11.827675 74.308395 87.480675 1.0
-11.823833 62.849529 78.502289 1.0
-2.128775 -34.050663 37.964752 0.0
-57.62273 78.367516 123.16931 1.0
14.6256 71.518051 -109.9048 4.0
-11.646937 62.297977 76.967339 1.0
8.800201 55.596851 32.9953 1.0
-19.83215 73.097885 97.783005 1.0
-11.59585 -89.374329 33.82605 0.0
10.0708 53.748348 0.0214 1.0
12.48224 34.884392 -8.49062 0.0
9.1365 44.699249 -24.683001 0.0
3.896 -40.277714 39.534435 0.0
22.380388 66.059845 -29.508926 2.0
23.609829 67.91156 -26.61375 2.0
16.017902 70.447693 -27.69688 2.0
13.2618 49.149651 -7.0906 1.0
7.7616 50.521484 -14.6647 1.0
4.837584 54.476311 28.607416 1.0
13.871349 71.38205 -109.28821 4.0
-2.260199 -10.408629 30.159708 0.0
-52.581501 76.876648 121.1224 1.0
-19.407421 76.967773 97.573715 1.0
12.096179 50.669792 37.879959 1.0
11.4495 22.14135 8.3387 0.0
0.61766 49.848427 40.01693 1.0
12.622667 61.825218 -56.88987 4.0
5.198075 0.156175 22.38485 0.0
13.9041 64.834351 -41.851151 2.0
1.358325 8.823771 16.705425 0.0
-11.308819 -88.306519 34.384766 0.0
-2.873066 -8.926933 30.033834 0.0
10.8748 57.158051 -35.883698 4.0
1.620975 56.064251 43.054775 1.0
12.189732 33.068687 -6.13005 0.0
4.699483 52.507782 21.314701 1.0
15.655136 63.683628 -45.753891 2.0
8.614988 61.125595 -91.115715 3.0
24.440125 72.126617 -20.334955 2.0
6.176153 60.08646 52.037502 1.0
-2.396625 62.681992 63.037018 1.0
14.897825 70.841324 -122.22628 4.0
10.635525 59.602074 -67.116302 4.0
4.1407 -49.0863 40.203125 0.0
6.355334 49.67804 0.796 1.0
9.130433 43.495953 -82.263329 3.0
15.798542 73.62085 -124.39123 4.0
15.0371 70.131348 -104.8082 4.0
7.60147 9.433297 16.679323 0.0
13.141951 50.534122 -11.804971 1.0
-0.428275 -65.330978 37.731827 0.0
41.590263 85.362747 -0.541217 2.0
10.128217 29.6647 -1.641517 0.0
-6.121378 64.031883 69.978821 1.0
9.111633 46.661617 -6.169967 1.0
-6.38785 -35.563797 39.852451 0.0
-11.3131 61.187248 72.011803 1.0
-0.613833 -16.062817 31.023716 0.0
1.3833 67.846352 68.882133 1.0
11.946817 52.708149 2.3529 1.0
11.8964 61.618126 -81.221451 4.0
-4.1238 64.189453 67.947304 1.0
13.212425 60.166473 -70.701599 4.0
-10.648149 74.561234 86.433319 1.0
-13.602699 63.314651 82.235001 1.0
14.455375 49.607327 8.387825 1.0
-13.0565 -86.214752 38.802799 0.0
10.62295 51.8139 13.329399 1.0
-12.3563 -85.842148 38.944199 0.0
12.536751 60.380749 -74.869675 4.0
18.63871 67.839844 -32.758408 2.0
35.384968 92.667671 -5.891167 2.0
0.402672 -57.174641 39.74921 0.0
3.198 -18.78195 33.0313 0.0
11.667167 50.879364 -85.623734 3.0
10.1031 58.278717 47.584064 1.0
9.8319 55.24115 -32.526299 1.0
7.044219 53.236992 9.142112 1.0
42.913727 97.416351 -4.2152 2.0
12.894051 69.622398 -100.188 4.0
21.368568 73.080826 -22.280001 2.0
12.423416 56.796265 -41.879593 4.0
14.5767 69.889877 -119.09543 4.0
5.507639 49.889145 6.42821 1.0
-18.183743 70.885635 96.131523 1.0
12.342 60.01635 -53.9533 4.0
2.317125 -46.271523 39.650925 0.0
9.99505 16.870338 12.362425 0.0
12.805153 52.402241 18.789087 1.0
24.411999 74.214851 -18.87085 2.0
-12.223125 75.117554 88.759773 1.0
43.963177 88.940514 -1.109944 2.0
12.9229 54.189182 -40.820934 4.0
6.353449 40.07431 -80.23262 3.0
9.81505 54.9035 -22.1117 1.0
10.70615 63.119148 -75.188698 4.0
-6.447688 -45.687439 41.559952 0.0
11.048967 54.320267 -17.37035 1.0
52.334099 93.122948 0.8901 2.0
14.9975 69.51635 -28.7785 2.0
-6.312167 -42.930851 41.057796 0.0
8.899044 54.601143 24.618893 1.0
-31.882301 78.623848 110.90486 1.0
5.2813 11.56135 13.1786 0.0
41.644173 88.644875 -2.678275 2.0
2.591275 14.589925 12.588449 0.0
1.048517 65.568916 65.485886 1.0
11.4681 69.100204 -107.4259 4.0
-5.112875 58.697723 60.448418 1.0
-16.603149 -96.991302 33.840752 0.0
15.22905 73.387146 -121.9188 4.0
10.329427 53.503353 12.810445 1.0
7.2607 54.812649 25.5641 1.0
1.946125 -7.576212 26.338326 0.0
12.749407 70.992981 -108.34296 4.0
1.30575 -24.451851 33.984703 0.0
6.396075 49.033974 -85.016327 3.0
13.9133 63.80035 -74.072403 4.0
-3.1945 60.503349 60.7654 1.0
-46.123169 76.865005 119.37202 1.0
28.8048 70.668953 -16.674299 2.0
-5.821137 -81.985985 35.191174 0.0
-5.4927 -75.959549 37.1842 0.0
11.212542 58.843357 -48.103264 4.0
-13.814899 -91.20755 38.82275 0.0
10.6679 53.4207 16.856874 1.0
10.358167 49.779053 -35.60677 0.0
44.584064 88.042076 0.198467 2.0
11.752434 67.328789 -94.59845 4.0
-11.4702 69.478752 83.320198 1.0
23.509733 75.538353 -18.284632 2.0
-6.326 -84.194351 34.464298 0.0
8.6893 55.230598 29.467751 1.0
9.0621 51.699501 -6.26815 1.0
-1.87305 -15.11685 31.07555 0.0
-2.334475 -21.337677 33.280872 0.0
14.0547 75.036949 -120.88181 4.0
10.7345 58.277851 -65.747398 4.0
-4.106467 -35.101948 38.876263 0.0
-15.187799 -95.614174 32.544746 0.0
50.39275 90.986 2.144375 2.0
25.600533 68.48558 -24.645134 2.0
-2.00985 -73.071365 35.877357 0.0
12.113425 55.584297 36.7089 1.0
13.8454 61.156898 -67.115555 4.0
47.656445 90.655052 0.418428 2.0
14.228579 48.398445 3.663975 1.0
6.329072 47.614876 2.310379 1.0
12.654276 55.614456 -44.870399 4.0
5.9286 47.887856 4.324427 1.0
7.224913 48.793007 -5.889787 1.0
11.367475 47.446835 -6.600367 1.0
32.924252 84.621689 -7.904737 2.0
18.776546 72.426811 -24.614735 2.0
-0.4276 -70.729752 35.9576 0.0
12.001 47.415951 -83.905602 3.0
4.306558 49.389133 -84.587212 3.0
4.85765 -36.736099 39.8839 0.0
9.36715 19.910378 9.372251 0.0
11.242063 56.280441 -31.299957 1.0
11.362229 59.403625 -51.61198 4.0
1.52875 -63.767998 37.698502 0.0
49.310699 93.912849 -1.45995 2.0
55.152729 98.814713 -1.356296 2.0
2.537343 -20.826462 33.440201 0.0
-3.347078 42.145535 -78.121208 3.0
0.995125 10.357731 15.801882 0.0
0.889 47.18845 22.8862 1.0
5.07485 6.02185 17.8748 0.0
5.381164 54.059837 24.735893 1.0
-2.867977 52.392803 48.423115 1.0
1.3077 60.24855 53.524899 1.0
16.265175 65.670052 -39.18425 2.0
14.628349 67.127106 -99.283752 4.0
12.62595 66.429199 -82.747498 4.0
5.368867 -43.529785 39.652901 0.0
-12.796577 63.454937 81.42569 1.0
6.12975 40.9039 -80.818283 3.0
-4.746275 55.983353 54.73925 1.0
10.328392 6.387663 18.991428 0.0
8.393049 30.66885 -4.4394 0.0
-17.14625 75.073235 94.634377 1.0
-9.460788 -69.196045 42.153336 0.0
13.87925 52.812683 -86.650696 3.0
3.843094 52.032555 -84.96344 3.0
-3.104735 54.787197 51.207939 1.0
52.133251 94.973724 -0.676675 2.0
-21.983616 76.012039 100.39799 1.0
10.1619 51.261951 -38.722301 0.0
14.48085 66.361626 -99.52832 4.0
10.3789 50.581951 36.700199 1.0
11.123767 53.149685 14.9249 1.0
-8.462825 -81.979172 36.4137 0.0
9.215066 62.905548 -93.046104 3.0
-59.132961 78.618065 123.87048 1.0
12.669641 52.906013 -25.999359 1.0
0.447813 8.324924 17.04528 0.0
17.3612 64.965652 -39.175652 2.0
11.0792 62.82555 -69.870773 4.0
9.1476 51.503376 -27.12425 1.0
5.260567 55.981236 33.751835 1.0
8.69371 48.37846 -84.825775 3.0
13.5575 51.336151 11.1507 1.0
-23.873001 79.049225 101.15225 1.0
-4.93005 58.168854 59.193901 1.0
14.844177 50.563061 19.994726 1.0
-26.50835 73.914627 108.28047 1.0
5.292025 50.1129 -85.24765 3.0
2.4067 34.651051 -6.8407 0.0
17.869226 62.365204 -44.654877 2.0
12.426426 63.977757 -72.138176 4.0
7.709 37.397049 -12.5808 0.0
-6.3886 54.343552 53.631798 1.0
11.242544 53.139366 -42.859001 4.0
0.344475 7.26225 17.773388 0.0
8.528774 48.125969 -9.774192 1.0
5.81565 45.615501 -23.698851 0.0
11.619187 50.541962 41.2402 1.0
2.92495 -30.524651 37.869827 0.0
-9.3431 -76.861748 40.879902 0.0
23.161596 68.838654 -25.69866 2.0
-15.025 -94.763649 34.5597 0.0
27.46179 75.75499 -13.921677 2.0
3.371244 7.335712 16.891705 0.0
31.336662 84.446251 -8.804288 2.0
-56.357731 79.63427 123.30731 1.0
7.94665 50.895401 -17.055801 1.0
2.84635 27.522449 1.25865 0.0
9.799267 54.086216 -4.543517 1.0
-0.114879 64.330582 64.012032 1.0
-2.832175 -69.7854 37.865623 0.0
-1.415567 44.249626 -80.674294 3.0
14.670517 69.380592 -104.56278 4.0
1.0672 -4.338224 25.278675 0.0
-3.2877 35.901051 -77.914276 3.0
1.8126 50.469551 32.420502 1.0
12.42185 59.717651 -53.05085 4.0
6.607133 51.846397 2.881283 1.0
11.68475 63.21273 -88.115997 4.0
-12.1177 -88.204849 35.4813 0.0
0.886075 -58.35305 39.442001 0.0
48.14949 92.871399 -1.277933 2.0
-35.717728 80.386307 113.61823 1.0
14.55915 68.307602 -99.372948 4.0
-1.4155 70.420952 74.617676 1.0
6.748848 45.272316 -22.664806 0.0
-8.9767 -80.310448 38.258999 0.0
9.696247 54.555622 26.260916 1.0
13.3796 74.226952 -116.6492 4.0
7.556533 25.034918 1.942555 0.0
-2.900612 43.123375 -78.838974 3.0
45.430885 90.587593 -1.387085 2.0
9.61826 54.184708 22.68116 1.0
11.475 50.450851 24.850901 1.0
-5.94265 -41.802601 41.270653 0.0
-0.634713 4.724837 19.287075 0.0
-38.004547 79.918098 115.3412 1.0
11.85575 60.8517 -57.9058 4.0
-7.1507 -70.946854 40.295448 0.0
10.392606 56.875301 -40.636349 4.0
10.4785 60.451149 -58.8941 4.0
1.697469 -49.357765 39.990547 0.0
12.281192 64.350334 -45.59203 2.0
27.858175 83.378258 -11.280509 2.0
32.894508 90.675461 -6.752433 2.0
1.69365 -15.8293 30.2041 0.0
3.649863 50.298462 18.635183 1.0
12.369801 36.899536 -10.654266 0.0
25.041485 70.661728 -21.486671 2.0
14.062075 56.670677 -90.39975 3.0
6.414116 19.989157 6.443028 0.0
-4.6689 -61.022961 40.601173 0.0
-15.679325 69.380699 91.063675 1.0
-1.1338 -63.212349 38.814999 0.0
-19.044725 78.209236 96.847244 1.0
-1.092775 68.678871 71.857697 1.0
20.559896 77.824989 -17.175249 2.0
6.851725 6.17835 18.900925 0.0
7.09825 53.273949 -87.064499 3.0
3.269842 54.735809 35.178299 1.0
-31.9552 76.404404 112.67993 1.0
5.862017 54.198608 22.140749 1.0
12.3874 50.719627 35.135101 1.0
6.01735 17.67605 7.88655 0.0
15.3952 71.370453 -120.0496 4.0
14.225522 67.00576 -88.925751 4.0
11.2897 56.843948 -34.3578 1.0
0.5305 53.945553 42.892834 1.0
4.0041 -31.00065 38.679798 0.0
2.887024 -51.198547 40.156563 0.0
8.946266 52.981682 -29.896866 1.0
11.219851 11.210976 15.551775 0.0
14.199101 67.676598 -108.42454 4.0
10.157399 56.249451 -38.35173 4.0
-2.224688 -62.290035 39.220123 0.0
4.4449 45.680851 9.0307 1.0
4.087375 47.902775 -84.14505 3.0
41.921829 92.205643 -4.093458 2.0
26.286049 69.878326 -21.517775 2.0
12.3423 52.194248 -29.679399 1.0
16.298925 69.908875 -28.251575 2.0
-5.4544 -79.204552 36.108101 0.0
-4.355779 69.868271 76.011841 1.0
10.612825 51.045326 24.692726 1.0
8.6845 54.415352 -1.2528 1.0
10.04615 59.837677 -61.123775 4.0
44.0341 90.852547 -2.7042 2.0
15.1888 73.968147 -120.7841 4.0
6.65385 23.331326 2.430625 0.0
14.086151 37.357273 -11.389595 0.0
-5.8536 -61.552876 41.2575 0.0
1.61225 55.489052 41.879517 1.0
54.626549 94.039101 1.51535 2.0
18.582701 62.375851 -44.204346 2.0
11.213384 57.951435 -41.109402 4.0
8.8264 60.88615 54.027699 1.0
9.6778 32.638256 -5.587122 0.0
-0.625042 40.852768 -79.8769 3.0
12.483 55.154301 35.538151 1.0
-6.443842 -55.946087 43.367283 0.0
6.1595 24.80105 1.74525 0.0
13.00595 69.159348 -96.223404 4.0
14.382394 50.577053 14.863458 1.0
4.6975 -27.54705 38.728649 0.0
13.645409 61.368031 -73.087013 4.0
9.851328 62.629684 -93.625145 3.0
3.329975 54.604012 -85.47406 3.0
-0.718069 41.583351 -80.084183 3.0
0.08345 -63.31525 38.266098 0.0
11.256112 52.012985 -86.331963 3.0
8.670176 46.412048 -26.389299 0.0
11.241058 51.580742 -0.19308 1.0
3.1904 52.292351 27.3944 1.0
11.646626 29.749842 -1.121708 0.0
-51.221958 78.77803 121.37575 1.0
-4.360833 -59.685596 40.640625 0.0
13.037705 66.231224 -104.6167 4.0
11.042049 37.203949 -11.091249 0.0
3.367167 -34.4119 38.967014 0.0
12.16985 53.312069 -16.965401 1.0
22.036013 76.985085 -17.619253 2.0
43.859592 92.022316 -3.17899 2.0
6.994879 55.739403 31.921352 1.0
54.386967 100.61884 -2.048167 2.0
0.4468 18.49651 11.4847 0.0
14.297649 65.238953 -87.125999 4.0
4.1926 40.434547 -11.875601 0.0
50.557365 94.006638 -0.7135 2.0
8.644575 54.408775 5.790275 1.0
22.2913 64.123024 -31.072451 2.0
12.863357 54.167561 -33.700684 1.0
9.85075 54.880032 29.937866 1.0
16.33095 66.671997 -35.566803 2.0
11.550484 68.21714 -101.28784 4.0
4.1901 26.822449 1.2702 0.0
7.100433 11.683549 14.666522 0.0
6.424809 53.266262 13.95486 1.0
9.65195 53.861149 17.876133 1.0
11.8737 52.029148 -37.0224 0.0
-1.118033 63.360043 63.117489 1.0
11.8447 50.741951 18.0105 1.0
4.463987 -17.347912 32.835175 0.0
1.393114 49.373764 31.01618 1.0
11.107312 49.653812 -85.038147 3.0
11.270158 53.052521 1.294828 1.0
-0.0935 67.639816 69.731331 1.0
5.241929 57.087898 39.822018 1.0
7.018629 41.252068 -80.829697 3.0
7.570904 51.876472 -8.378671 1.0
14.320463 66.586319 -93.355286 4.0
6.96735 49.040951 -4.471575 1.0
13.175543 59.507301 -66.636414 4.0
15.898083 66.312012 -36.561066 2.0
7.69205 54.415699 19.993439 1.0
12.068159 64.263664 -46.45504 2.0
-0.108475 59.913651 53.383392 1.0
-13.959496 65.672806 86.873123 1.0
28.197357 78.09803 -12.5521 2.0
2.099733 3.92365 19.7616 0.0
2.555588 53.820915 35.648624 1.0
8.2313 43.937149 -21.734249 0.0
-19.3242 -99.609947 33.5648 0.0
-1.07225 -57.137001 39.72805 0.0
8.9806 49.184849 -31.4823 0.0
27.120171 71.172928 -18.475616 2.0
17.308537 72.708122 -24.821188 2.0
-1.688925 -58.671803 39.772526 0.0
1.064875 22.931686 6.855812 0.0
0.774869 -21.360271 32.613564 0.0
-5.627924 -55.900784 42.376812 0.0
-13.4188 61.323051 75.487701 1.0
9.369995 53.809917 11.600422 1.0
24.316074 77.489624 -15.98335 2.0
12.710433 52.1884 15.408867 1.0
8.642861 54.187397 19.105249 1.0
12.485034 54.798416 -34.004581 1.0
11.59825 62.142532 -64.113518 4.0
13.038867 58.93557 -56.851318 4.0
2.59325 25.600382 3.544917 0.0
14.616763 74.714775 -122.37506 4.0
6.873525 44.399879 -21.0965 0.0
-8.2003 65.709747 75.032501 1.0
1.5086 16.538151 12.0389 0.0
11.710079 63.613365 -48.927464 2.0
-36.139599 74.978447 117.0671 1.0
12.691999 52.346375 -7.081442 1.0
12.205116 52.866108 -32.831909 1.0
-36.166447 79.328873 114.46182 1.0
2.614325 26.397949 2.355975 0.0
0.80155 5.06118 19.316174 0.0
9.653666 55.115147 -40.114964 4.0
10.677518 50.523899 -85.617706 3.0
6.437664 54.358753 -86.887299 3.0
11.90285 66.3004 -105.304 4.0
-9.12465 62.250549 73.368103 1.0
13.950025 61.841499 -65.92395 4.0
61.5564 101.57265 -1.43945 2.0
-40.8848 75.219543 118.6634 1.0
10.625725 51.880196 4.359925 1.0
-2.333129 -4.645163 26.796858 0.0
-10.361807 59.604771 64.66983 1.0
-5.571379 -74.499329 37.927254 0.0
31.244225 76.918045 -8.4588 2.0
-7.875458 61.745567 70.398376 1.0
6.598956 49.406494 -1.3511 1.0
3.610595 38.119781 -79.474518 3.0
-4.61325 68.409447 74.057281 1.0
-4.67755 -34.050449 38.796749 0.0
-8.241306 -71.777252 40.977238 0.0
-32.769012 78.41153 111.74212 1.0
22.578575 78.576935 -15.895025 2.0
-1.929669 -32.2803 37.329575 0.0
11.22495 45.490448 -24.47665 0.0
23.58675 71.277672 -22.094126 2.0
10.659225 51.870323 11.85125 1.0
-9.641926 -81.434952 37.6157 0.0
4.673233 50.618004 12.883108 1.0
11.650101 70.614952 -114.8149 4.0
-8.2047 -60.154652 43.473778 0.0
2.66305 60.353725 53.099224 1.0
10.5705 55.018951 32.079201 1.0
-1.973467 -19.897932 32.761097 0.0
14.8947 50.538052 18.542999 1.0
8.6797 50.61615 -21.458775 1.0
12.6583 69.876747 -122.4122 4.0
-3.5615 -73.935249 36.959499 0.0
7.330029 62.258247 -90.497528 3.0
5.414082 51.079231 9.36724 1.0
13.145 61.50325 -94.717903 3.0
-1.6151 68.07222 70.872002 1.0
19.069918 67.058342 -33.383244 2.0
-1.900967 -18.116415 32.114597 0.0
13.388329 61.120537 -60.998684 4.0
-6.6012 -73.724777 38.866463 0.0
6.082536 45.575642 -83.421181 3.0
5.198211 47.663502 7.601255 1.0
3.0745 45.371025 -82.924652 3.0
28.639851 81.41095 -11.228251 2.0
19.666149 77.123344 -18.18058 2.0
18.285149 71.043747 -26.548 2.0
10.598738 58.924751 -53.615776 4.0
10.17021 27.308941 1.34723 0.0
7.684633 47.097286 -3.651233 1.0
14.366256 49.10075 4.592396 1.0
6.562483 48.694485 -0.24385 1.0
3.338613 51.88908 25.88658 1.0
6.398283 54.383717 20.573198 1.0
-18.021133 69.07225 97.036331 1.0
16.623016 60.401627 -50.793648 2.0
14.255333 64.927788 -89.481071 4.0
6.1096 62.92218 58.315464 1.0
-16.990398 -97.903946 32.243698 0.0
10.7317 47.684448 -12.5083 1.0
7.493866 50.721386 -12.107334 1.0
7.38345 31.31745 -5.44275 0.0
6.896742 54.602135 21.303108 1.0
12.085667 71.196434 -123.70588 4.0
13.027901 51.855148 -14.8729 1.0
8.60385 52.676922 -36.751793 1.0
20.250559 75.415688 -20.256113 2.0
-11.7716 71.786652 85.313904 1.0
8.5818 46.082703 -25.657501 0.0
12.397326 62.001801 -62.1553 4.0
13.807462 62.375465 -71.342903 4.0
-14.293025 68.340851 88.571304 1.0
13.64995 64.545547 -96.689499 4.0
11.651732 50.144409 -21.763376 1.0
1.7021 -14.76905 29.981001 0.0
5.586913 60.63475 53.214363 1.0
11.605667 57.574116 45.168667 1.0
12.5759 46.418098 -25.834301 0.0
41.428589 87.450699 -2.151542 2.0
12.744165 38.862251 -12.668962 0.0
-13.1442 61.807098 77.087952 1.0
13.1604 54.780949 -34.935699 1.0
1.9421 -1.9261 23.307049 0.0
14.425975 65.885323 -94.302322 4.0
11.604199 37.949383 -11.839395 0.0
14.094656 50.612068 8.310344 1.0
-50.345634 79.603134 121.14353 1.0
13.015634 51.734283 -6.441183 1.0
2.19195 -12.142512 28.552887 0.0
19.65172 73.68148 -22.665964 2.0
10.963117 61.675774 -63.649918 4.0
-14.7483 -94.22155 35.2118 0.0
10.376201 57.578121 44.310669 1.0
-24.0086 75.49131 102.96073 1.0
7.318481 50.382214 -9.991249 1.0
-7.424425 -78.777473 37.291527 0.0
-5.6639 -62.235851 40.994499 0.0
-17.761349 -97.678329 34.896599 0.0
11.553212 70.017944 -112.30647 4.0
12.49885 49.436699 -31.512451 0.0
51.113762 91.372864 2.539642 2.0
6.368101 37.855347 -11.2076 0.0
-12.6926 -87.333252 36.258801 0.0
8.5274 3.51175 21.504139 0.0
-8.166099 -87.553352 33.258202 0.0
2.623312 -22.137814 33.987328 0.0
11.720181 70.660065 -116.58193 4.0
9.3122 53.00745 -86.982903 3.0
-12.775949 65.662918 84.395088 1.0
-29.1306 78.178947 107.9708 1.0
9.60615 54.600952 -10.9214 1.0
0.2122 47.905449 29.819401 1.0
1.7962 13.96765 13.3951 0.0
10.9865 49.616753 -34.29575 0.0
-14.620691 77.208908 92.67205 1.0
11.214534 55.929001 36.433353 1.0
26.199089 70.35289 -20.801439 2.0
-12.523088 66.813423 84.105698 1.0
10.7808 54.918152 -19.04105 1.0
4.109037 -51.876663 40.366314 0.0
-2.595848 47.304638 -80.189629 3.0
1.36065 11.850212 14.775875 0.0
-4.0615 -75.426003 36.626598 0.0
-5.377996 -65.137062 40.288155 0.0
5.664709 44.072407 -82.641953 3.0
8.9071 54.88855 27.1912 1.0
-8.2284 -77.213348 38.6157 0.0
11.5168 65.855049 -101.2335 4.0
11.249107 64.386879 -88.983131 4.0
-4.679 -78.794052 36.064247 0.0
3.37871 50.366676 20.27335 1.0
10.110216 54.332687 -8.385567 1.0
2.898333 51.057217 -84.293846 3.0
11.9875 71.136848 -113.3602 4.0
8.6905 53.971176 13.7939 1.0
10.9047 31.396982 -3.609671 0.0
13.960467 69.986198 -121.69233 4.0
11.00745 50.721237 34.986412 1.0
-4.08765 -30.754749 37.14785 0.0
-24.993988 79.32589 102.04144 1.0
5.8432 59.071751 49.069199 1.0
-11.0366 -84.981148 36.966702 0.0
10.944301 58.367149 -46.281803 4.0
14.33595 49.720749 17.328051 1.0
10.316404 59.616776 -63.493324 4.0
12.68855 52.629299 -14.48915 1.0
14.3941 67.342148 -92.414101 4.0
12.239129 50.856312 -21.396599 1.0
2.414706 32.365051 -5.117894 0.0
4.089334 -39.314819 39.583084 0.0
10.65275 56.4743 -31.672901 1.0
12.6049 48.758049 -84.476997 3.0
-7.064625 -55.403328 43.884323 0.0
47.327057 93.695831 -2.3239 2.0
-3.62395 -12.722575 31.069813 0.0
-0.4222 -49.306149 39.818298 0.0
-11.4295 -82.565849 39.466499 0.0
6.6179 46.833427 1.8864 1.0
10.5136 53.44495 5.4192 1.0
12.807323 60.453533 -93.630997 3.0
16.016378 60.231979 -53.595371 2.0
14.6217 72.441803 -115.9194 4.0
-0.351254 -35.601437 37.675148 0.0
11.68745 53.3722 -37.460949 4.0
-2.9907 -59.129452 40.040298 0.0
6.0863 39.087448 -79.697777 3.0
-7.367487 -69.457825 40.898773 0.0
56.377251 97.040894 0.04035 2.0
-4.1233 -77.957451 35.3699 0.0
-6.915166 -81.66938 35.677105 0.0
-1.689742 6.414308 17.918917 0.0
10.933975 62.199574 -80.25592 4.0
-3.2272 66.243553 69.9095 1.0
-3.85625 51.73605 48.900848 1.0
14.250375 52.11702 26.515263 1.0
7.4665 32.980251 -7.3965 0.0
-10.0359 66.151352 78.551498 1.0
-6.824175 -60.776428 42.402176 0.0
11.388375 61.557877 -60.916649 4.0
13.43405 48.86285 -4.1544 1.0
-0.383294 -46.049408 39.475281 0.0
-1.961946 -27.506897 35.459629 0.0
0.433059 53.259968 -83.490524 3.0
6.911702 45.745293 1.853448 1.0
12.1639 54.626049 -43.408199 4.0
13.71105 73.64225 -117.62915 4.0
11.635563 55.377869 -29.672672 1.0
5.912559 46.609077 4.915821 1.0
9.757151 52.351051 -39.592934 0.0
30.1616 77.229095 -9.97354 2.0
-10.388025 -87.8405 34.1287 0.0
9.697975 12.225 15.113925 0.0
-6.367917 -34.693932 39.464817 0.0
-5.900803 56.34008 56.243458 1.0
-18.125526 -100.04745 33.210854 0.0
32.749931 89.732613 -6.958733 2.0
-13.9372 73.721352 90.069099 1.0
5.590067 27.414925 -0.079183 0.0
11.5599 68.6502 -112.03765 4.0
33.711449 79.323067 -5.856067 2.0
-2.22175 -43.303925 39.790024 0.0
-0.2697 51.91275 43.975101 1.0
11.616655 55.591267 -88.690788 3.0
-17.562756 68.335747 96.134827 1.0
11.852222 47.404087 -5.2858 1.0
12.745612 67.43309 -89.291 4.0
13.130472 49.884281 -9.080942 1.0
14.532712 70.366531 -121.41348 4.0
-5.57275 -35.843575 39.706398 0.0
11.93535 63.484299 -89.704201 4.0
18.104233 67.50605 -33.692997 2.0
11.2632 49.0821 -17.832451 1.0
47.741951 91.675148 -0.6402 2.0
6.016431 50.364189 3.476147 1.0
7.391228 52.861897 2.355322 1.0
8.940867 36.106152 -11.912833 0.0
0.846283 51.128258 39.754166 1.0
9.68545 54.498188 -24.740711 1.0
8.334372 -12.761475 29.328987 0.0
8.42345 18.0973 10.106525 0.0
4.64455 14.93685 10.886125 0.0
0.6431 39.28075 -79.742401 3.0
10.095738 56.216236 -39.188812 4.0
0.804203 56.561657 45.7229 1.0
-7.3655 -63.408268 42.08115 0.0
-14.431522 64.375008 86.341637 1.0
10.04592 21.169947 8.533977 0.0
13.382617 66.824295 -85.637375 4.0
-41.597565 77.565804 118.0461 1.0
8.38961 54.487579 23.119667 1.0
14.2801 63.918549 -75.418655 4.0
9.781525 53.622704 6.139925 1.0
-1.301267 -55.275768 39.923832 0.0
13.687425 65.832726 -97.824722 4.0
2.623156 47.354374 -83.456993 3.0
11.603465 48.088314 -29.205275 0.0
15.52265 71.859924 -121.6378 4.0
11.360166 68.291443 -106.04012 4.0
12.851601 61.60165 -80.386559 4.0
3.800942 53.145554 28.116608 1.0
9.63275 54.114349 -38.825447 4.0
10.99445 54.5299 -49.664051 4.0
12.51112 72.412987 -118.05276 4.0
8.672649 49.725998 -18.1572 1.0
-2.103962 -31.623775 37.070198 0.0
9.2955 45.86095 -26.874901 0.0
-7.35015 74.002777 82.847321 1.0
11.233875 66.732529 -99.5019 4.0
11.250554 56.866325 42.517384 1.0
0.8004 55.494251 44.129299 1.0
-2.143812 59.606003 56.876087 1.0
2.00514 56.618347 42.689018 1.0
7.3287 28.000931 -1.678097 0.0
-13.19195 -86.812698 40.109398 0.0
-0.174967 -14.610909 30.436377 0.0
-20.589411 77.258247 98.77787 1.0
-4.7224 -80.195847 35.203899 0.0
-8.628925 -81.132385 37.048172 0.0
-11.6539 65.289253 82.175697 1.0
-11.8098 67.391617 82.990807 1.0
-4.97265 -78.082504 36.4063 0.0
1.1459 58.832699 48.642151 1.0
12.3019 55.86945 -36.9925 4.0
16.414513 62.166752 -46.604637 2.0
-10.656324 67.59317 80.887848 1.0
11.002434 26.206261 3.16239 0.0
-2.6248 -13.332484 30.914167 0.0
-4.655442 -67.614334 39.377357 0.0
11.6203 53.342949 -10.061501 1.0
8.350067 50.513447 -19.2397 1.0
-13.4805 -86.917053 39.239498 0.0
14.904507 67.278687 -32.190231 2.0
7.2638 28.559151 -2.1618 0.0
37.849617 90.308922 -5.1423 2.0
10.3897 29.193336 -0.66655 0.0
1.996658 -39.466965 39.147659 0.0
3.93185 -24.17625 36.2911 0.0
11.20145 64.914444 -82.941696 4.0
-25.663176 75.084778 105.30532 1.0
3.0921 -29.08625 37.531399 0.0
4.47245 3.0896 19.645649 0.0
12.42146 67.86924 -92.253036 4.0
9.756144 55.927502 -41.276875 4.0
12.194 62.008148 -94.746597 3.0
0.622461 -38.881561 38.668304 0.0
12.297892 52.289841 4.367942 1.0
10.6088 32.987652 -5.8306 0.0
13.908517 62.227097 -68.244148 4.0
10.123199 14.557699 13.87325 0.0
-11.86643 -88.735558 34.59766 0.0
-36.440571 78.209145 115.09264 1.0
12.6524 62.712448 -95.540001 3.0
29.745707 73.018684 -11.604736 2.0
11.926425 50.655746 17.237499 1.0
-10.73116 75.112663 86.930443 1.0
3.618266 -8.900639 27.585701 0.0
7.95265 50.61985 -5.28995 1.0
4.003915 50.253735 15.723572 1.0
-42.215729 80.84462 118.03845 1.0
11.18175 50.864716 -36.534882 0.0
10.115225 33.830208 -6.924717 0.0
17.494999 61.253551 -48.02985 2.0
-1.5731 59.565399 55.46645 1.0
7.62063 1.60788 22.598831 0.0
13.86095 61.273201 -63.408401 4.0
10.19653 56.352421 -43.110378 4.0
0.390422 63.768417 62.829159 1.0
9.318501 54.111198 1.0701 1.0
2.636839 46.069248 -83.15078 3.0
2.935944 54.919987 36.773151 1.0
12.69795 57.436516 -46.695984 4.0
11.688083 69.417969 -115.58945 4.0
0.755819 13.105473 14.324429 0.0
-27.292549 78.330803 105.74765 1.0
-11.30275 66.508949 81.492752 1.0
8.182137 49.882786 -15.8946 1.0
11.690267 55.731853 -31.853632 1.0
-20.026175 75.454269 98.006973 1.0
13.096199 51.407402 2.3237 1.0
14.542299 51.485035 24.368687 1.0
4.8232 -29.390249 39.183899 0.0
9.473976 57.92408 44.533627 1.0
14.063299 74.493652 -116.8631 4.0
-2.890846 51.715469 47.807438 1.0
-26.771477 73.085526 109.66721 1.0
12.102425 68.595261 -99.400116 4.0
12.278334 73.390236 -122.74251 4.0
1.056411 48.731464 37.055111 1.0
12.552999 55.381699 -41.640251 4.0
1.3462 -37.423801 38.649452 0.0
6.621125 53.687485 14.589145 1.0
12.51195 56.328102 -39.1693 4.0
0.993944 -62.777336 38.127068 0.0
12.669733 62.692909 -86.410629 4.0
11.591576 50.549725 33.9212 1.0
8.551292 62.314362 -91.933334 3.0
4.4215 58.239052 45.106552 1.0
-12.167237 -85.961639 38.234112 0.0
-3.725955 -22.915848 33.780106 0.0
-18.722 70.377853 97.389481 1.0
30.943634 74.933479 -8.739766 2.0
11.8795 52.518749 -34.2234 1.0
18.871475 64.412552 -37.069191 2.0
7.12524 7.32041 18.11454 0.0
-28.143835 75.402046 108.61679 1.0
9.47215 54.397675 -29.215601 1.0
11.862442 53.300434 -11.883567 1.0
10.635 61.98695 -94.8395 3.0
-39.69305 75.685799 118.214 1.0
3.0508 18.316601 9.57275 0.0
11.187662 64.127533 -88.034134 4.0
12.130791 52.617634 15.693671 1.0
25.025002 69.01635 -24.0201 2.0
2.923533 1.6589 20.578934 0.0
-5.90405 63.444473 68.915298 1.0
10.621008 51.690376 -86.274445 3.0
1.030817 47.628044 24.477684 1.0
10.839317 63.391968 -81.379982 4.0
1.23105 54.3573 40.980598 1.0
43.693073 95.836838 -4.111829 2.0
9.859258 30.366774 -2.634747 0.0
10.9444 53.195145 10.090575 1.0
-17.163588 74.104561 94.144737 1.0
12.276367 70.933693 -125.02471 4.0
6.119466 23.687349 2.9076 0.0
10.956125 53.268974 -0.976592 1.0
3.356585 36.770523 -8.642361 0.0
9.091959 54.432911 23.907299 1.0
11.205951 61.018147 -58.371021 4.0
3.0722 -24.970749 35.678398 0.0
-1.112139 2.132783 21.413994 0.0
6.137617 56.80925 -87.411148 3.0
10.43537 56.58128 -89.510056 3.0
11.6059 53.492802 24.15745 1.0
13.72035 66.6259 -84.109253 4.0
34.681911 82.26223 -5.919737 2.0
-1.376686 62.071484 60.663303 1.0
4.63265 37.1255 -8.8856 0.0
2.619915 53.543289 34.659122 1.0
-0.3417 3.4261 20.319248 0.0
-6.723515 -65.846794 41.270832 0.0
13.394918 51.37574 9.387538 1.0
8.542225 52.661274 -23.604099 1.0
13.737051 61.386543 -55.657658 2.0
12.845374 49.36166 -10.112996 1.0
11.272016 66.763268 -97.049561 4.0
6.342425 15.857075 10.340799 0.0
10.597275 51.604576 1.1172 1.0
-7.14185 -67.127647 41.482002 0.0
-10.692326 -78.144852 42.20665 0.0
-5.353244 64.444199 69.710434 1.0
13.5059 69.707451 -123.6998 4.0
-23.604975 76.36335 102.12912 1.0
8.4199 51.18745 -11.1129 1.0
-4.0874 -64.282982 39.486198 0.0
12.752317 45.06575 -23.016117 0.0
9.030233 53.550385 -30.454109 1.0
28.571814 75.435837 -12.371008 2.0
56.205826 102.09251 -1.958665 2.0
-1.7032 2.03725 20.973301 0.0
9.0371 53.625401 -14.843666 1.0
-14.138 -91.820557 36.918602 0.0
4.653975 -17.9321 33.201988 0.0
3.795501 19.075451 8.623567 0.0
-20.3046 69.708946 103.237 1.0
4.002122 54.170502 30.79368 1.0
8.5606 52.81765 -22.6486 1.0
8.688175 55.529949 30.6071 1.0
0.596996 21.88413 8.260592 0.0
2.847712 48.72118 -83.799911 3.0
-5.69255 67.686485 74.685692 1.0
-0.72755 4.008566 19.995367 0.0
12.909451 50.62635 33.061897 1.0
-11.216442 65.240807 80.606857 1.0
7.87575 44.895851 -22.686501 0.0
14.10042 49.10355 1.1244 1.0
12.410333 43.422359 -19.607954 0.0
2.9847 -0.01045 21.4641 0.0
-2.911317 42.393917 -78.6259 3.0
9.822902 47.254734 -83.92511 3.0
-13.633249 -90.232903 38.268547 0.0
-4.006975 56.329651 54.543404 1.0
-12.451632 68.560226 84.089378 1.0
11.6676 53.119251 -6.5127 1.0
53.590118 93.417145 1.644817 2.0
6.640175 53.234722 12.348958 1.0
7.350784 54.481396 13.97558 1.0
13.403467 49.37661 -6.413879 1.0
-5.523393 60.672523 64.964935 1.0
20.579428 66.75206 -30.717218 2.0
5.1021 21.601089 5.624163 0.0
-54.094082 79.367134 122.43739 1.0
-29.137234 76.094589 109.18135 1.0
-16.583366 69.057732 93.172401 1.0
7.74055 54.471703 8.84465 1.0
10.969925 35.448624 -8.888756 0.0
-10.73085 -79.2714 41.902252 0.0
13.951857 63.781242 -82.899483 4.0
21.642612 76.095291 -18.780537 2.0
12.37434 56.242661 -52.346378 4.0
-2.616425 39.996719 -78.222 3.0
9.53425 58.382797 -90.746948 3.0
-17.376999 70.124847 95.128357 1.0
-11.1301 -82.106598 40.1143 0.0
8.56315 55.961823 34.518173 1.0
-23.135 74.302773 102.38022 1.0
7.909775 2.3482 22.279774 0.0
31.533333 79.693718 -8.7857 2.0
-12.761164 62.852867 79.84137 1.0
-31.023743 80.393936 109.72716 1.0
1.70076 47.521648 21.665319 1.0
-34.987778 75.435936 116.59031 1.0
11.5554 59.082249 -47.253799 4.0
-12.344067 -83.217377 40.411991 0.0
-9.366 57.814152 60.653099 1.0
37.012585 93.481628 -5.474352 2.0
12.7378 53.939381 30.063133 1.0
-14.451799 -93.279251 37.896698 0.0
11.512837 65.599426 -83.371399 4.0
6.744692 -12.760525 30.079109 0.0
10.68395 55.137047 -19.742649 1.0
12.7019 53.090851 -31.038334 1.0
12.761362 64.649246 -95.172012 4.0
-8.383987 74.37088 83.576569 1.0
22.118399 67.175568 -28.584335 2.0
6.690911 51.350864 -33.845188 0.0
12.621099 45.663277 -24.219 0.0
10.79515 38.167549 -12.3913 0.0
7.649533 -16.874166 32.352871 0.0
11.944566 67.88105 -95.90033 4.0
-4.147499 61.051037 63.149761 1.0
18.60305 66.565849 -35.202 2.0
11.8813 50.015999 -18.07365 1.0
53.2873 95.177048 -0.2694 2.0
11.295601 63.402718 -86.728531 4.0
3.89665 61.302452 54.9207 1.0
10.089305 22.839905 6.746906 0.0
-36.991135 80.271706 114.71973 1.0
9.740754 27.692566 0.720287 0.0
10.1616 48.062199 -10.305 1.0
10.012951 56.476128 38.181 1.0
13.63945 61.316849 -70.442993 4.0
-14.261134 63.769634 84.734253 1.0
11.934413 53.233337 -35.810776 1.0
10.98829 48.348564 -11.705408 1.0
3.368208 -20.173357 33.683472 0.0
11.8508 60.533852 -56.231098 4.0
3.2537 39.018951 -10.3812 0.0
10.0741 53.86145 -45.287102 4.0
3.12932 47.28598 15.822581 1.0
-14.85625 67.888603 89.421227 1.0
12.7425 62.981651 -48.835701 2.0
11.17885 41.642952 -17.132401 0.0
10.994808 30.204565 -1.876181 0.0
4.13411 44.40839 -82.819168 3.0
6.360023 -7.374983 27.34786 0.0
-6.861389 60.574436 66.315346 1.0
23.193087 70.943359 -22.948868 2.0
10.589175 13.082225 14.656675 0.0
11.8142 60.341648 -54.818699 4.0
7.30085 37.988014 -12.682312 0.0
14.334949 67.490997 -31.312901 2.0
8.833567 27.134583 0.739453 0.0
9.242701 47.25695 -28.9261 0.0
55.403423 101.42225 -2.017367 2.0
11.0872 51.817848 6.024 1.0
-14.619388 74.325592 91.298103 1.0
5.232412 -5.572606 26.224018 0.0
8.188568 53.64006 -0.71155 1.0
10.994675 63.767101 -82.977921 4.0
20.245613 72.392273 -23.846413 2.0
24.762054 76.446068 -16.658297 2.0
5.629958 44.288101 -20.698692 0.0
-1.951573 52.035969 46.963097 1.0
10.974275 56.497047 -56.870476 4.0
29.463001 74.392166 -11.156266 2.0
2.705422 39.386398 -80.406372 3.0
44.579659 94.903214 -3.859158 2.0
8.465825 16.306175 11.85405 0.0
14.197163 61.693176 -53.502762 2.0
17.834759 72.245323 -25.096233 2.0
4.951082 46.397339 -83.798485 3.0
11.1392 20.54645 10.687 0.0
2.108875 7.811025 17.26165 0.0
10.175083 24.842934 4.141967 0.0
-7.048166 56.797989 57.886169 1.0
12.56235 59.105251 -51.565102 4.0
6.134183 56.280853 35.202385 1.0
-10.655775 68.815414 81.891586 1.0
59.813408 101.24872 -1.379937 2.0
0.1205 43.728367 -81.316879 3.0
12.611214 52.613392 -12.193822 1.0
-4.362762 68.062073 73.413864 1.0
11.3794 55.00985 32.527401 1.0
2.341867 51.307552 28.7423 1.0
9.250792 53.252548 -33.085472 1.0
4.003888 3.678933 18.866455 0.0
19.314501 62.902649 -40.396801 2.0
11.3612 66.829742 -103.27363 4.0
14.168475 63.326851 -79.977402 4.0
7.3431 56.479202 36.186127 1.0
1.905112 40.601181 -80.709053 3.0
10.3827 50.921452 25.785 1.0
9.5818 54.958401 -33.122501 1.0
-6.31285 -68.906372 40.101776 0.0
11.120667 32.519848 -5.066767 0.0
11.5459 44.935051 -22.9932 0.0
20.590921 69.412277 -28.147564 2.0
-0.063048 -42.751373 39.08107 0.0
10.89845 51.98975 6.9366 1.0
2.817417 49.105331 20.403248 1.0
12.095812 64.426659 -74.680817 4.0
13.686503 60.340664 -60.851868 4.0
-1.61135 65.428551 67.09745 1.0
13.396482 50.246391 -33.255932 0.0
-29.134375 75.111069 110.61514 1.0
-4.04315 58.628201 58.6446 1.0
10.7178 46.267651 -26.056601 0.0
12.6574 65.886749 -78.669701 4.0
25.867426 76.861084 -15.642426 2.0
8.542548 53.262455 -8.21667 1.0
2.23659 58.101814 45.112106 1.0
9.133284 53.804214 -13.625698 1.0
8.7295 44.198952 -23.0231 0.0
8.856051 54.376625 4.007775 1.0
-44.28767 77.653175 118.96494 1.0
6.08945 1.626133 21.892025 0.0
-8.637196 59.272343 63.635468 1.0
7.7335 52.712353 -2.876867 1.0
-27.993866 76.335892 107.48948 1.0
-13.2428 -85.825348 39.6297 0.0
14.972034 49.935684 17.871367 1.0
7.077633 50.311039 -85.5438 3.0
-13.965463 74.657547 90.453011 1.0
13.059262 33.444828 -7.039162 0.0
0.092187 12.611938 14.61145 0.0
7.895737 55.640961 31.606634 1.0
-8.899862 -65.809433 42.252037 0.0
-2.172217 43.519646 -79.725586 3.0
9.291201 50.26775 -33.985748 0.0
-17.745701 -97.485252 33.705399 0.0
15.005051 68.696304 -107.405 4.0
9.5702 48.299 -13.1306 1.0
-18.625124 72.071724 95.879669 1.0
11.556966 23.008295 7.359675 0.0
4.68318 54.685966 29.718817 1.0
14.661813 67.012253 -95.640152 4.0
61.284515 100.97421 -1.116333 2.0
14.34728 45.579308 -25.610783 0.0
26.854881 77.293114 -14.550553 2.0
13.64788 52.888443 27.785778 1.0
-8.2038 -75.144402 39.740738 0.0
-1.381533 -37.652916 38.311768 0.0
-9.162174 64.938278 76.918503 1.0
56.336765 96.078613 0.6974 2.0
13.381603 51.334671 8.520154 1.0
47.287552 88.109001 2.1529 2.0
12.0885 51.294048 7.6818 1.0
13.33265 52.308601 21.204575 1.0
16.280342 64.003647 -43.574165 2.0
11.080151 58.7202 -67.558197 4.0
-3.8952 43.374752 -78.178772 3.0
13.3659 28.357651 0.6736 0.0
4.583104 55.131508 31.379078 1.0
29.013279 77.563339 -11.596378 2.0
6.816 40.080399 -14.2257 0.0
10.43535 61.090469 -68.214935 4.0
3.7672 56.954666 39.722214 1.0
5.63263 22.94879 3.88152 0.0
6.4157 53.607151 16.1003 1.0
8.0576 35.85215 -11.0413 0.0
8.87945 5.80804 19.616066 0.0
13.1457 50.34375 5.5107 1.0
-5.6264 60.076599 63.655201 1.0
-6.424025 -40.245552 41.26305 0.0
7.609551 8.88035 17.160698 0.0
5.556494 37.066906 -9.623272 0.0
26.340622 82.353706 -12.402217 2.0
13.700617 63.114265 -71.601234 4.0
12.627859 63.228554 -88.697205 4.0
-16.007401 69.004852 91.793602 1.0
11.34695 57.479027 -39.980549 4.0
0.947975 -7.64555 27.150227 0.0
28.931684 72.147362 -14.3086 2.0
0.0577 57.14875 48.619499 1.0
1.061153 26.864586 1.970338 0.0
6.174975 -43.706699 39.7033 0.0
19.493351 69.752701 -28.0592 2.0
27.300999 73.885254 -15.52235 2.0
-13.96875 -91.4244 37.515602 0.0
10.0997 55.00555 32.601799 1.0
-1.513933 57.723114 52.683231 1.0
4.89128 46.672993 9.09314 1.0
16.966967 68.204002 -31.342522 2.0
-1.9807 -5.68175 27.604599 0.0
23.5835 65.394447 -29.659901 2.0
38.815529 85.369568 -3.183453 2.0
2.6128 59.437649 49.9487 1.0
-7.10155 58.828201 61.950951 1.0
9.13325 -0.04415 24.511799 0.0
39.383026 86.341133 -3.333587 2.0
11.393706 66.361481 -91.604988 4.0
5.326333 57.644032 42.327934 1.0
12.892799 74.662506 -120.9786 4.0
9.695774 55.708149 -45.761936 4.0
-55.126598 79.753052 123.0113 1.0
-58.514851 77.745193 123.5418 1.0
10.711651 48.090126 -84.119797 3.0
12.10196 72.103111 -120.12124 4.0
8.090549 51.883247 -18.150951 1.0
11.639324 69.135101 -114.33223 4.0
7.838567 52.586384 -6.371817 1.0
11.14125 51.232552 18.4676 1.0
-21.093374 77.084656 99.2593 1.0
7.0148 36.07795 -10.049 0.0
8.308546 59.014137 -89.824615 3.0
1.938 -60.476765 38.796982 0.0
13.39455 51.565025 -35.549526 0.0
-10.2896 -71.786049 42.115898 0.0
2.8148 46.782349 16.8258 1.0
13.12984 32.549976 -5.815393 0.0
-12.0955 61.429497 73.114853 1.0
10.82585 53.213177 -44.30645 4.0
12.74035 50.177071 20.866737 1.0
12.818395 42.720348 -17.866217 0.0
-0.190975 55.402691 46.614555 1.0
14.275284 68.611908 -95.759682 4.0
28.620625 71.851501 -15.465675 2.0
6.75765 0.78965 22.835674 0.0
6.984156 22.943361 3.490184 0.0
14.612328 74.704315 -121.38715 4.0
15.193992 69.994781 -112.33869 4.0
6.36685 53.375847 17.336651 1.0
0.721502 46.009148 -82.276741 3.0
57.603611 98.2883 -0.378227 2.0
-4.4488 -49.450951 41.356499 0.0
-13.195 69.96965 86.446503 1.0
1.063233 53.114136 40.346333 1.0
12.936642 67.620544 -111.72345 4.0
-12.41255 73.69175 87.937424 1.0
-9.484629 73.604042 84.354111 1.0
-1.968821 51.146378 46.050571 1.0
8.2905 19.19615 8.9557 0.0
4.07595 22.585508 5.532617 0.0
5.8137 5.226 19.063616 0.0
9.970498 55.634933 -48.488392 4.0
12.608034 57.299469 -56.103065 4.0
1.3366 -17.579849 31.196501 0.0
3.454197 -48.724518 40.042725 0.0
-6.887825 62.133476 69.678879 1.0
12.491392 69.686462 -102.79494 4.0
0.781896 -55.632607 39.989708 0.0
30.451887 80.593987 -10.04979 2.0
11.362975 68.670448 -108.10907 4.0
1.445467 49.527752 29.521734 1.0
8.164628 61.872131 -91.150505 3.0
13.3742 59.90905 -59.954899 4.0
12.153225 72.091225 -124.87477 4.0
-5.158647 -57.46254 41.863911 0.0
16.630833 62.889748 -44.537865 2.0
-1.396993 -14.642097 30.881096 0.0
11.109099 53.079285 5.4563 1.0
7.034606 43.585739 -82.267952 3.0
11.757294 69.392067 -116.5321 4.0
15.0499 68.488205 -104.21375 4.0
7.614762 54.78775 -87.764511 3.0
-14.27335 73.07605 89.629898 1.0
6.749312 2.249796 21.754921 0.0
14.9498 70.664047 -115.95055 4.0
49.400723 92.101997 0.079358 2.0
11.350267 65.598213 -85.940002 4.0
10.379112 56.911598 41.576263 1.0
9.160975 54.272949 -1.7911 1.0
-6.111521 -43.599129 41.102409 0.0
13.617233 74.385384 -120.70374 4.0
3.086917 20.915424 7.592408 0.0
-3.773625 -27.5464 35.626575 0.0
15.661791 62.404503 -47.614128 2.0
-10.8699 60.521053 67.676933 1.0
-1.647907 -45.129608 39.251068 0.0
43.020973 91.625702 -3.422616 2.0
1.154983 15.08665 13.141867 0.0
11.602075 50.448925 25.771425 1.0
2.6714 -13.83395 30.0725 0.0
14.273025 65.229774 -92.001297 4.0
-3.088193 60.168835 59.568623 1.0
10.439017 60.369701 -68.649849 4.0
7.6434 -2.61365 25.501301 0.0
13.617912 65.877838 -38.52269 2.0
14.256367 60.174316 -56.198181 4.0
6.276692 51.42915 4.115642 1.0
4.11255 14.163851 12.07695 0.0
15.194075 62.08099 -49.591251 2.0
-10.30835 60.932449 69.943756 1.0
19.391436 75.729828 -20.203514 2.0
1.487398 49.37748 32.389076 1.0
-13.8743 -92.066452 34.109699 0.0
12.9859 67.118851 -84.454903 4.0
-14.703051 75.946945 92.305344 1.0
7.902508 43.431953 -82.059547 3.0
-12.4555 -87.533051 37.093899 0.0
6.64585 -8.823151 27.69875 0.0
13.1003 59.517948 -56.431702 4.0
12.1042 51.267151 4.0084 1.0
4.971383 8.556121 15.429146 0.0
-6.391025 72.640762 81.18206 1.0
12.3377 71.580498 -113.87862 4.0
8.863026 57.761288 -89.937912 3.0
3.869839 51.601147 21.175497 1.0
1.3622 26.152451 3.0319 0.0
2.7489 18.95805 9.3522 0.0
7.090625 18.581249 8.700125 0.0
-6.239356 -75.08139 38.140366 0.0
39.600456 88.18396 -4.368183 2.0
3.357854 6.620691 17.370003 0.0
-19.56085 69.739799 101.2916 1.0
11.23498 62.889683 -51.687969 2.0
30.973179 79.615555 -9.377298 2.0
-4.664575 -40.543953 40.879475 0.0
9.096027 53.647896 -15.987611 1.0
12.784544 68.499939 -94.697037 4.0
-6.4879 -80.875702 36.119049 0.0
6.421 63.973652 60.304699 1.0
10.91513 57.77869 -42.698994 4.0
-6.16035 -76.002914 37.816269 0.0
7.54185 36.430748 -11.370501 0.0
12.680025 72.247253 -116.13223 4.0
13.135394 30.789106 -3.151563 0.0
43.035282 90.710335 -2.927366 2.0
-5.582308 -60.117172 41.53006 0.0
13.702783 68.749306 -115.61815 4.0
49.7043 89.975548 2.6131 2.0
8.238584 28.663679 -1.656777 0.0
4.308733 7.125349 16.462833 0.0
13.351867 55.016731 36.64328 1.0
10.524433 62.737183 -53.931599 2.0
1.7246 53.5144 37.595749 1.0
0.71652 16.351711 12.45536 0.0
13.108333 65.706779 -80.353737 4.0
13.8336 41.210953 -14.599051 0.0
1.9137 -32.541801 37.744274 0.0
-0.142882 56.340702 47.592693 1.0
-16.346273 70.009743 92.447174 1.0
10.061399 55.919449 -49.821899 4.0
-18.974514 70.005196 98.692459 1.0
28.075071 70.674179 -18.122013 2.0
5.566 -22.39595 37.027 0.0
-5.54955 -73.126396 38.290447 0.0
-18.374302 75.129639 96.108986 1.0
8.509612 52.96088 -15.997313 1.0
9.20673 50.908081 -85.964996 3.0
12.734881 50.737122 33.763916 1.0
13.6736 66.82135 -33.714802 2.0
-6.6893 66.825111 74.606873 1.0
9.185234 12.756458 14.741833 0.0
-0.705515 -56.261303 39.821125 0.0
-3.125125 64.92675 68.14328 1.0
45.398262 89.619659 -0.467233 2.0
10.609558 12.423008 14.971358 0.0
7.016675 62.402576 57.115074 1.0
1.37244 37.394051 -79.179604 3.0
-7.4176 -64.693253 41.783699 0.0
9.5869 50.902802 -36.034203 0.0
12.6007 55.60495 -42.659401 4.0
8.4689 53.009998 -14.815861 1.0
13.0394 52.59185 -21.034401 1.0
-14.264 -93.415848 35.34 0.0
-5.214155 55.605064 54.371727 1.0
5.168864 53.384369 22.890341 1.0
45.702301 91.919579 -2.256417 2.0
14.54385 56.185303 -90.70105 3.0
-0.198769 66.375389 67.713882 1.0
16.848825 60.980164 -49.020187 2.0
4.515175 47.947174 11.1457 1.0
3.816225 54.396744 32.25869 1.0
-29.128399 79.9664 107.2262 1.0
10.61325 53.385353 8.60375 1.0
9.886062 31.165277 -3.607394 0.0
-3.651988 57.766953 56.585335 1.0
8.19495 54.349575 3.11205 1.0
5.622008 -17.903851 33.690918 0.0
11.154625 51.400299 14.79325 1.0
13.0337 60.27935 -56.966202 4.0
47.307442 98.313004 -3.2942 2.0
-0.71555 -17.24465 31.691849 0.0
-1.0814 -22.177435 33.442646 0.0
0.38815 59.399517 51.304062 1.0
1.95055 46.475502 18.11945 1.0
-12.21305 66.074005 83.176102 1.0
12.056 58.343864 -46.016098 4.0
12.7132 63.372452 -47.967499 2.0
-8.387575 62.376709 72.363274 1.0
19.8939 66.992249 -31.688248 2.0
8.232263 39.446251 -16.616787 0.0
13.72165 66.3312 -36.761803 2.0
19.5889 64.320473 -35.621056 2.0
11.051316 63.133602 -84.091087 4.0
23.604736 76.634911 -17.195246 2.0
12.31575 54.068501 28.9112 1.0
1.895638 2.170075 20.9296 0.0
40.817604 83.891632 -0.313004 2.0
-9.933849 -74.975197 41.63625 0.0
36.386173 92.882141 -5.6001 2.0
8.20824 24.158037 3.749501 0.0
45.358856 86.659142 1.600533 2.0
0.753126 -45.443184 39.528061 0.0
11.7869 62.631451 -85.499397 4.0
6.2373 45.442749 4.4293 1.0
25.957144 73.613426 -17.229391 2.0
33.863422 82.882652 -6.869127 2.0
13.1703 49.984848 14.64925 1.0
-29.181911 76.916626 108.638 1.0
-34.651241 79.634315 112.99144 1.0
9.64502 61.363667 -92.604965 3.0
1.666133 53.281853 -84.189285 3.0
10.2096 53.126125 -43.131325 4.0
0.12595 -64.120148 38.04615 0.0
6.170315 51.624493 6.110247 1.0
10.55545 58.34145 -64.005905 4.0
9.1085 51.724499 -6.97665 1.0
-10.052641 63.071808 76.145912 1.0
7.650413 49.322609 -85.070953 3.0
10.34435 54.209702 25.14945 1.0
1.89175 44.94315 -82.4617 3.0
8.815451 -2.61155 25.85545 0.0
13.036205 59.192722 -65.917816 4.0
11.858401 52.914551 -2.8739 1.0
16.343559 60.333504 -52.007591 2.0
2.9584 48.038952 17.5959 1.0
5.34609 56.367432 -86.818169 3.0
10.042638 31.993464 -4.646961 0.0
-2.210084 54.433678 49.548012 1.0
11.9586 49.511749 -15.5324 1.0
1.028514 18.783325 10.815367 0.0
27.94985 71.718201 -16.625851 2.0
-2.820958 64.691238 67.377121 1.0
-14.383801 -93.579849 34.416199 0.0
-5.102637 66.048096 71.825699 1.0
-15.14995 64.167953 87.528801 1.0
11.593125 67.043594 -96.099213 4.0
36.070038 79.834641 -3.30079 2.0
-7.371095 -76.695953 38.25024 0.0
24.190201 82.082924 -13.318213 2.0
10.91745 53.632103 -9.28235 1.0
55.486099 94.691284 1.91725 2.0
-34.86705 80.665894 112.88385 1.0
13.09845 61.67495 -58.034348 4.0
9.594203 54.630508 -42.438663 4.0
14.08305 64.073601 -44.718102 2.0
10.555667 61.096317 -72.619698 4.0
35.334007 80.229782 -4.369221 2.0
11.226049 64.700249 -81.357346 4.0
5.767988 52.091522 11.179993 1.0
7.545534 46.692486 -2.0147 1.0
10.6232 51.755901 3.418475 1.0
11.438601 48.369949 -84.191597 3.0
30.57534 77.699265 -9.5817 2.0
7.044925 -18.123201 33.977558 0.0
16.381451 65.130402 -41.10495 2.0
12.094151 66.343102 -84.119003 4.0
-14.97645 76.641052 92.895279 1.0
6.40485 50.884914 1.051917 1.0
-11.598275 -86.862572 35.896072 0.0
12.724795 51.15646 -85.703705 3.0
-2.627879 -37.039818 38.735405 0.0
-0.136117 -36.779984 37.952 0.0
-21.685699 73.585747 100.4573 1.0
9.4136 54.633751 -41.053902 4.0
-12.722925 -86.834381 38.611473 0.0
-60.992599 78.856506 124.4744 1.0
27.944117 72.641609 -15.421968 2.0
7.6259 55.258301 28.8661 1.0
-6.74861 64.939491 72.202972 1.0
11.5037 50.957352 -25.9974 1.0
2.9228 -9.182 27.2759 0.0
21.133228 66.726265 -30.07276 2.0
-2.1792 -48.425949 40.261501 0.0
13.595533 49.699341 19.384533 1.0
5.8069 6.67525 17.964001 0.0
-16.0734 70.618217 91.553436 1.0
15.1245 52.515099 -37.259697 0.0
12.6124 53.430851 -29.6099 1.0
-7.143125 -71.797249 39.980598 0.0
1.11425 -12.78775 29.09185 0.0
47.8988 96.325043 -3.1147 2.0
11.207696 61.582291 -62.083061 4.0
-1.04754 -26.559958 35.035229 0.0
3.36686 37.676128 -9.315981 0.0
-2.53849 61.296829 59.591259 1.0
14.0089 49.042198 -0.461167 1.0
-3.32025 -24.124298 34.271534 0.0
27.417274 78.355576 -13.427338 2.0
25.930157 72.09127 -18.645365 2.0
-15.593149 -95.6996 34.625748 0.0
-7.128887 73.036163 81.936699 1.0
11.87335 60.980251 -78.212799 4.0
14.582684 44.154015 -21.471001 0.0
8.09075 51.117897 -33.26635 0.0
-4.67525 -64.621239 39.758244 0.0
9.761118 44.902504 -82.716476 3.0
5.7077 59.309429 -87.508957 3.0
-7.665371 -72.62883 40.035286 0.0
11.63766 47.645336 -7.394554 1.0
15.2589 70.696953 -114.4657 4.0
10.675567 53.378586 15.427899 1.0
10.583364 54.503674 -48.191895 4.0
-4.387545 -47.632217 41.133476 0.0
6.578417 46.113308 -24.3501 0.0
-4.347122 71.574776 78.595802 1.0
-15.67605 77.532509 93.754791 1.0
