# .PCD v0.7 - Point Cloud Data file format
VERSION 0.7
FIELDS x y z label
SIZE 4 4 4 4
TYPE F F F U
COUNT 1 1 1 1
WIDTH 1443
HEIGHT 1
VIEWPOINT 0 0 0 1 0 0 0
POINTS 1443
DATA ascii
1.908367 16.268917 -12.528567 2.0
1.361613 24.613026 -52.670761 4.0
-0.48625 31.695599 48.673649 0.0
-53.9571 -131.30064 -1.008 1.0
10.9069 37.687851 67.629852 0.0
-5.237525 -12.6803 -10.157249 1.0
0.512933 7.70895 19.501833 2.0
-6.418707 -14.975762 -8.573907 1.0
-1.022987 26.784525 16.676136 0.0
-3.417219 -13.048691 57.725845 2.0
-2.7883 -16.235149 61.377201 2.0
8.842762 24.713261 29.786488 0.0
7.085308 30.553188 41.789139 0.0
-28.625751 -82.7827 13.34365 1.0
13.445385 33.469238 55.511517 0.0
-2.247125 106.12383 134.82088 0.0
1.940825 25.458099 0.49885 0.0
-42.918373 -113.82268 6.36415 1.0
5.345913 35.893555 -73.044235 5.0
-18.39496 -31.677601 0.56715 1.0
2.354262 66.973236 106.62766 0.0
6.383093 36.301342 -70.210152 5.0
8.46375 39.134102 -132.88681 4.0
5.490325 30.782326 -78.77375 4.0
4.363213 68.458038 105.95358 0.0
-27.380001 -58.115883 10.1464 1.0
5.6585 32.944649 -123.1294 4.0
-7.523942 111.60412 143.62407 0.0
12.374906 50.214657 84.764458 0.0
-36.849648 -110.83775 4.81115 1.0
4.009958 35.577393 52.282375 0.0
-4.667444 -7.087369 50.273888 2.0
-1.763725 100.00935 138.40659 0.0
1.322133 22.002266 -45.42149 4.0
12.676399 65.591438 104.10795 0.0
-21.884613 -59.199677 11.084004 1.0
-0.908431 5.744215 25.278786 2.0
9.817951 39.809196 69.032654 0.0
-26.8836 -54.8508 9.5167 1.0
-2.672361 16.596504 -1.526233 2.0
5.340944 29.520512 34.080635 0.0
7.0177 21.61405 7.7017 0.0
10.97389 34.18885 -70.623291 5.0
-0.4364 89.60965 128.19582 0.0
-3.045358 -3.196394 -19.761877 1.0
-2.203667 21.580301 -50.592316 1.0
-1.71745 11.6446 6.02475 2.0
10.67485 24.774349 35.24205 0.0
-23.724319 -61.410255 10.6803 1.0
0.176598 91.518898 127.64924 0.0
9.315075 31.963215 48.105507 0.0
8.199575 36.374775 -121.40092 4.0
8.579149 37.632347 62.786499 0.0
-4.380928 11.427928 -109.35929 3.0
-25.406366 126.57574 150.34715 0.0
8.40575 43.144402 -145.4194 4.0
6.509445 48.613083 80.178207 0.0
-35.860409 -97.845291 11.2038 1.0
-41.545502 -107.48715 10.2135 1.0
0.389496 23.639742 -39.635025 0.0
-1.93855 10.341351 11.014826 2.0
-3.6213 16.905775 -111.28938 3.0
34.91893 60.700607 -31.398178 5.0
-0.0048 13.83205 -41.341099 1.0
-5.557713 -4.060981 -19.338434 1.0
-1.243625 7.194138 -34.83725 1.0
-1.566947 22.959763 -13.013296 0.0
13.985 50.571251 -45.127201 5.0
-3.006881 -8.703525 52.552269 2.0
6.1922 33.390751 -92.042801 4.0
1.562092 90.483749 125.85129 0.0
38.797356 60.486801 -28.005451 5.0
9.865198 35.606606 -70.103027 5.0
6.9367 42.322048 -147.48531 4.0
11.049417 36.490685 64.446869 0.0
12.008026 48.135635 82.358948 0.0
6.531429 42.51738 -150.35612 4.0
-24.369301 128.67445 150.4296 0.0
40.125763 67.013298 -32.244629 5.0
4.88485 13.380501 14.355551 2.0
-13.980183 117.13977 147.1078 0.0
-0.7069 20.69095 -5.148 0.0
-13.970634 -34.617298 2.207125 1.0
-16.342035 -48.776886 7.581162 1.0
6.9793 36.329552 -110.2838 4.0
-1.896683 23.093449 -4.5675 0.0
-3.356271 18.097103 8.19795 2.0
5.486913 26.602575 -70.1633 4.0
3.7279 25.01755 -71.1362 4.0
-34.146652 134.15109 152.22165 0.0
-11.594562 -15.806928 -9.775162 1.0
19.328575 55.790607 -40.736782 5.0
-25.06115 -86.488754 13.1222 1.0
22.546 42.686852 -45.692699 5.0
3.5033 30.402451 -84.785217 4.0
0.046423 21.514107 -35.630013 0.0
3.662533 27.501476 -87.729568 4.0
16.677078 42.927155 -50.997074 5.0
-22.295326 -70.587128 14.931437 1.0
4.2446 27.06575 8.9976 0.0
-29.645599 -86.040649 13.1155 1.0
29.565483 64.574242 -34.713593 5.0
-2.214625 84.638184 126.80527 0.0
5.061443 19.046034 -22.225718 0.0
-27.12895 -61.970112 10.933182 1.0
3.667844 95.740936 127.18652 0.0
9.744866 72.796165 109.9913 0.0
9.260949 70.97435 108.38232 0.0
-47.027721 -123.04504 -0.853369 1.0
3.025385 29.200096 -76.843323 4.0
-30.5252 -59.014549 9.7166 1.0
23.749201 48.933613 -38.117901 5.0
-1.8596 24.047951 4.7305 0.0
-19.376408 -25.557882 -2.610122 1.0
-13.368684 -6.48665 -14.945274 1.0
1.7482 53.123253 92.471848 0.0
-7.86885 -11.651194 54.646805 2.0
-0.4639 27.98525 26.879 0.0
12.748213 55.162449 91.459213 0.0
6.118466 31.573032 42.836884 0.0
7.92405 36.482948 -143.4637 4.0
0.4509 3.51315 33.158249 2.0
-0.2189 19.705101 -22.143101 0.0
-26.792324 -93.872498 11.664949 1.0
32.679451 60.255699 -33.427799 5.0
0.539525 5.507237 28.384075 2.0
4.943462 91.91275 124.28482 0.0
3.413883 87.083344 122.52191 0.0
-3.772892 9.678026 17.261179 2.0
30.676033 52.608761 -30.731308 5.0
5.292198 22.598875 -27.444511 0.0
-0.234866 15.710494 -111.78436 3.0
-15.20235 118.08035 149.33545 0.0
-10.0426 112.06285 145.92465 0.0
-4.736134 16.039017 13.356033 2.0
-4.335475 107.5863 139.49036 0.0
5.070405 27.137918 -53.726467 4.0
-6.485175 109.60064 142.72861 0.0
8.281799 23.268875 22.94178 0.0
-11.80736 -10.642363 -12.188372 1.0
-14.9311 -51.497749 8.0351 1.0
-27.503426 -66.624527 12.179983 1.0
-4.044073 28.929638 42.164665 0.0
34.081142 64.253677 -33.349167 5.0
4.008317 35.196003 -126.1409 4.0
-2.208526 -5.42706 50.248333 2.0
32.534374 61.991283 -33.447144 5.0
6.99 30.83025 -97.925797 4.0
-8.235069 6.37948 -105.88231 3.0
-3.115033 21.220766 -9.125725 0.0
-45.160938 -115.08864 8.31882 1.0
2.9681 17.331762 -15.960413 0.0
9.203512 50.92952 84.904694 0.0
-5.305375 14.595162 -110.08819 3.0
1.442 93.661499 127.45275 0.0
-3.4713 -9.805651 -12.900551 1.0
-7.521106 10.978763 -107.8479 3.0
32.013599 57.145863 -31.73702 5.0
0.3761 27.662899 23.655975 0.0
-17.993299 118.18795 150.1846 0.0
4.87695 30.743549 -109.12355 4.0
-1.217237 13.95965 -2.718175 2.0
-0.719756 105.18768 132.86305 0.0
-42.052551 -102.14225 12.30395 1.0
-33.873802 -107.66945 4.90495 1.0
10.345416 40.968441 -57.184082 5.0
15.46895 44.018024 -51.819038 5.0
-0.348658 11.4526 -36.879917 1.0
3.648367 29.422867 -73.648766 4.0
4.688659 30.174061 32.465469 0.0
7.024025 56.735023 92.241951 0.0
-9.740994 1.010056 -22.126104 1.0
8.31 44.07505 -149.1626 4.0
1.534045 36.249466 57.217312 0.0
-0.943342 39.033493 64.125847 0.0
8.0515 34.39695 -125.9112 4.0
5.012917 24.176413 -1.611821 0.0
-21.928036 -76.478653 14.534595 1.0
8.208424 62.434086 99.601112 0.0
8.598856 20.082659 14.867912 0.0
15.226276 47.627941 -47.711418 5.0
10.2545 85.935852 119.6257 0.0
8.243711 68.603912 106.29776 0.0
11.765985 29.523157 44.976578 0.0
0.980867 18.665443 -113.01202 3.0
4.1289 33.093899 -105.07465 4.0
-26.854944 -80.840202 13.123084 1.0
2.541253 14.815529 -4.349831 2.0
-4.983125 24.18815 8.681275 0.0
-20.9116 -31.809849 0.89615 1.0
1.86085 8.9835 17.4734 2.0
5.3153 34.32645 -97.648003 4.0
-3.8067 18.034451 -43.990299 1.0
3.406887 29.614239 -92.392334 4.0
-40.036079 -100.61592 12.350075 1.0
-2.272181 43.194958 72.244728 0.0
2.319202 12.344562 6.376986 2.0
-24.155651 -68.724579 13.04394 1.0
11.752583 74.783424 111.19678 0.0
-3.761478 28.01969 26.184534 0.0
-3.2625 20.332649 -12.039801 0.0
-20.20225 122.68875 149.07144 0.0
-16.425995 -40.273338 4.141985 1.0
-3.390626 8.261181 -108.25482 3.0
5.694887 38.656387 -144.02786 4.0
1.997562 39.403908 64.008545 0.0
4.883325 60.205635 96.613449 0.0
5.363375 34.447979 -100.29508 4.0
-52.708199 -128.84689 -0.58605 1.0
-50.294201 -125.44615 2.3002 1.0
35.86393 60.00589 -30.168198 5.0
-1.806211 22.368994 -16.15271 0.0
-0.888 21.108299 -27.980099 0.0
-6.455172 13.468229 18.98299 2.0
8.381815 22.326605 20.240547 0.0
10.973617 65.411499 103.28622 0.0
5.677497 35.375324 -136.61501 4.0
7.110533 31.37645 -89.665199 4.0
7.00595 27.650063 32.258148 0.0
8.2524 34.484348 -111.0857 4.0
22.873543 51.488438 -39.65757 5.0
-46.948502 -121.06171 1.94235 1.0
-4.353203 -12.402351 56.557541 2.0
5.356234 26.141973 -68.625084 4.0
6.9092 39.962051 -135.56935 4.0
2.56705 19.412413 -32.769726 0.0
-13.40472 -30.137665 -0.732312 1.0
-0.3334 19.408125 -30.3097 0.0
9.24962 48.018055 81.068146 0.0
24.0443 45.714401 -38.393852 5.0
-1.022625 5.9371 -106.536 3.0
-32.70747 -72.663483 14.241267 1.0
-40.072418 -112.70929 5.50868 1.0
10.04559 77.610207 113.53345 0.0
5.220615 34.871494 -75.783447 5.0
-25.642975 -55.944157 9.993703 1.0
-9.58285 13.3532 -107.03465 3.0
9.0635 29.970449 -123.6088 3.0
28.783451 53.270836 -33.08773 5.0
15.045217 43.861584 78.168701 0.0
6.240958 17.354996 -6.088159 0.0
3.343942 25.660368 -20.466724 0.0
-1.700429 19.368603 -6.151283 2.0
6.770415 37.219337 -67.117767 5.0
-4.137944 -27.185335 74.226379 2.0
-2.0427 19.32725 4.8897 2.0
-6.101 111.3837 141.22507 0.0
-7.87743 -3.202678 -19.617882 1.0
-35.208599 -79.326752 15.1669 1.0
2.525688 33.11525 -121.41565 3.0
-22.651606 -56.755394 9.294237 1.0
-9.222463 -26.778261 -1.96273 1.0
24.697453 48.531464 -36.892746 5.0
-1.372725 87.363556 129.63644 0.0
6.1337 32.29343 -86.830017 5.0
23.250099 43.720348 -42.652599 5.0
2.47425 22.494749 -56.708702 4.0
-2.9033 29.474951 44.3367 0.0
-11.319901 116.37144 146.85236 0.0
27.28916 50.686749 -33.876396 5.0
4.0244 26.28425 -23.886101 0.0
9.522901 39.40308 -60.255051 5.0
3.999547 69.511017 107.35966 0.0
-37.026611 -92.961853 14.539277 1.0
6.8926 30.633448 -94.614006 4.0
5.65195 17.67688 -11.62268 0.0
-21.385105 -53.887527 9.0014 1.0
-26.747534 -60.370934 10.620637 1.0
-40.62133 -116.86263 2.53385 1.0
-1.619225 19.152895 -45.575874 1.0
-21.183399 -73.457047 15.114 1.0
-30.770149 -94.704102 10.975825 1.0
-30.151199 -64.489052 12.069 1.0
11.227833 32.239799 49.904137 0.0
27.476212 58.582226 -35.903351 5.0
-5.268117 2.208475 34.93969 2.0
-2.686974 20.580004 -47.610268 1.0
5.11525 52.191349 86.343903 0.0
2.0471 25.997074 -68.18367 4.0
-44.589027 -113.69162 8.85165 1.0
-4.721 4.60225 30.529499 2.0
-20.91185 -71.566696 15.4499 1.0
30.388687 59.61895 -34.286194 5.0
6.792366 19.322977 0.164181 0.0
-51.766376 -127.37997 -2.56 1.0
-7.8697 -7.59755 -17.5231 1.0
-20.403913 -57.075092 10.941544 1.0
4.703 42.646049 69.097504 0.0
-3.77435 24.62595 9.70395 0.0
9.142946 25.680325 33.999527 0.0
5.595167 29.847151 37.156368 0.0
45.793976 70.43782 -31.404232 5.0
-11.9431 -25.371849 -2.8785 1.0
4.783956 87.773048 121.89334 0.0
27.886356 55.501213 -35.127106 5.0
-35.6021 -106.68333 6.45525 1.0
1.367112 81.214798 120.3712 0.0
-5.375166 3.570717 32.640118 2.0
-18.677532 -54.488777 10.712309 1.0
8.514708 35.595207 -128.62418 4.0
-26.550318 -47.240891 8.944616 1.0
4.333233 32.660133 -82.333351 5.0
19.007412 46.560692 -45.67968 5.0
8.86935 40.1833 -140.96313 4.0
2.391221 13.355909 2.227336 2.0
-27.05335 -69.34655 12.180349 1.0
0.857675 36.552803 58.97205 0.0
-15.91865 -42.152351 5.8065 1.0
-1.180686 -3.439511 48.438171 2.0
-39.385414 -110.35121 6.710994 1.0
-0.3352 -1.23475 45.654701 2.0
-2.7224 -18.48625 64.887199 2.0
-22.331625 -68.132828 14.293449 1.0
-2.958258 4.927463 27.50576 2.0
11.782738 54.437874 90.35994 0.0
35.6436 66.875549 -33.2453 5.0
-1.5074 70.068901 109.30106 0.0
42.120968 67.025223 -31.627518 5.0
11.672933 44.661381 -52.497028 5.0
33.666412 59.98225 -32.006901 5.0
-6.354262 -10.119061 53.55843 2.0
-0.368275 24.31716 -8.364605 0.0
-2.81515 98.882698 136.1236 0.0
-4.9315 10.70975 17.5937 2.0
-10.022469 -5.47759 -16.576635 1.0
29.908907 61.34483 -34.605545 5.0
25.672386 51.246918 -36.168488 5.0
-3.387237 -1.52766 42.484344 2.0
-26.931637 -74.603317 12.8515 1.0
-4.448231 13.466028 11.336334 2.0
-1.018367 23.339542 -114.08916 3.0
4.718738 23.94622 -18.004566 0.0
5.878025 37.495701 -127.05725 4.0
-6.22455 105.2077 142.63367 0.0
5.35485 32.901833 -90.816795 4.0
4.1935 16.623875 3.98775 0.0
1.119431 85.546509 123.33016 0.0
-28.636002 -56.925636 9.712583 1.0
-13.399525 115.65515 147.90616 0.0
6.782296 38.207695 60.218685 0.0
5.1849 26.800625 21.230873 0.0
22.948891 58.661129 -38.296612 5.0
2.31583 8.115706 23.806673 2.0
40.360611 69.392189 -32.817738 5.0
5.27575 35.318882 -107.8251 4.0
4.2999 28.91815 -98.096298 4.0
9.265902 32.20874 -76.848 5.0
14.7739 33.45155 58.198601 0.0
18.764851 57.185799 -40.096424 5.0
15.647067 45.416843 -49.600479 5.0
-10.285662 -12.755138 -12.340939 1.0
-3.008843 -34.053074 83.0868 2.0
6.923 37.897697 -150.68636 4.0
3.86125 22.372074 -51.416748 4.0
0.293525 25.160101 -115.29692 3.0
8.325649 43.418648 -152.17285 4.0
-26.4198 -50.201584 8.968426 1.0
4.365289 23.593637 -52.60849 4.0
-5.4987 -4.230217 45.963062 2.0
10.624226 33.696289 53.76416 0.0
-1.97975 99.1511 140.22302 0.0
-0.0767 37.72945 61.6521 0.0
5.01538 19.62772 -25.354961 0.0
21.902943 56.230133 -39.459335 5.0
-2.534733 3.111765 31.949684 2.0
-38.310963 -112.41068 4.6484 1.0
-15.7464 -54.180298 9.48255 1.0
3.199715 28.316677 23.94775 0.0
-4.6994 101.0355 141.73459 0.0
6.692141 16.894501 -2.645508 0.0
1.9469 98.879761 130.02533 0.0
-19.614201 -51.47435 9.1211 1.0
12.17415 71.835327 109.29727 0.0
-3.827635 -4.953545 48.109913 2.0
-7.553936 5.0949 32.374104 2.0
8.90595 40.098499 -57.9473 5.0
-8.1378 18.349983 -109.38712 3.0
2.0838 27.654449 -71.087799 4.0
6.1899 30.449226 -105.81328 4.0
-1.865395 21.387472 -113.1182 3.0
-17.622808 -55.874313 11.33999 1.0
4.977 28.616652 29.528849 0.0
8.85165 39.337151 -135.87509 4.0
0.7351 15.125238 -7.129575 2.0
3.773338 32.841866 44.287949 0.0
-6.587522 7.478083 -27.861267 1.0
17.152224 52.580307 -42.749649 5.0
-1.71155 28.176035 31.67765 0.0
4.62365 51.041504 85.075287 0.0
10.15845 22.13785 28.15485 0.0
-4.581171 105.54634 137.94095 0.0
-1.103742 9.405325 13.6371 2.0
-8.8434 16.60885 -108.4803 3.0
-41.640625 -104.94435 11.404966 1.0
-1.9486 75.021446 114.0911 0.0
18.026382 43.522671 -49.084728 5.0
-21.636047 -61.888306 12.62049 1.0
2.519144 31.0243 -120.24393 3.0
24.8678 53.562752 -38.189499 5.0
3.903733 27.262617 -47.439701 4.0
1.337588 24.767862 -18.772024 0.0
-25.028137 -60.061844 10.28337 1.0
-0.0543 25.51285 7.0083 0.0
29.270792 58.318554 -34.800171 5.0
3.104125 29.214035 30.584665 0.0
5.344627 20.295534 -50.139923 4.0
-20.152817 -65.94165 15.576651 1.0
-7.770861 111.37299 141.51941 0.0
3.224366 6.710525 28.892731 2.0
-16.000372 -30.996832 -1.001066 1.0
-52.07365 -128.2357 0.6786 1.0
9.3595 41.427048 71.720772 0.0
-0.720567 95.639137 133.64485 0.0
-7.879854 -1.332838 41.843781 2.0
6.736092 43.545834 71.917854 0.0
40.986576 72.418274 -32.539276 5.0
6.771791 45.181969 74.325485 0.0
-1.384089 19.763855 -25.398411 0.0
-4.8918 -10.494884 54.054432 2.0
-14.2956 115.4915 149.5609 0.0
0.732925 82.306091 122.80195 0.0
-28.842501 -89.402145 12.680574 1.0
-5.141694 10.967678 -33.598164 1.0
-4.76155 106.76755 140.88574 0.0
7.91685 47.914875 80.061157 0.0
0.3063 41.111778 68.01297 0.0
0.503346 44.01939 74.275452 0.0
-5.69192 -24.308071 69.121643 2.0
0.112419 24.719955 -3.703375 0.0
-5.382567 5.871583 -28.163815 1.0
2.866105 26.865761 -54.214939 4.0
4.7194 27.678049 -51.9244 4.0
7.449875 49.657276 82.656448 0.0
2.2431 22.62635 -59.916401 4.0
-23.547409 -77.880249 13.80995 1.0
-25.753201 -42.302952 7.7805 1.0
1.8509 18.4125 -23.8769 0.0
-26.8216 -64.984375 11.80105 1.0
-6.98275 10.8867 23.837349 2.0
-29.2292 -54.348949 9.1103 1.0
-0.994828 -0.217682 41.841709 2.0
5.686708 21.850733 -17.963264 0.0
1.048075 24.7745 -36.757275 0.0
-7.958067 5.300608 -25.297813 1.0
9.126 39.658451 -138.66901 4.0
7.7835 35.887222 -113.25223 4.0
-32.325378 -70.252945 13.876253 1.0
4.565762 24.69245 -13.59865 0.0
7.471167 24.318916 -116.42406 3.0
34.1544 69.220047 -33.7878 5.0
-4.09715 -31.61562 78.849884 2.0
49.144432 71.553848 -30.94055 5.0
1.2755 21.62775 -43.4883 4.0
37.340767 69.528412 -33.434109 5.0
5.09095 20.110231 -27.121332 0.0
-6.162475 107.20832 145.25891 0.0
5.232443 44.153152 71.741791 0.0
-5.6486 0.4284 -24.5683 1.0
-9.1384 113.60405 142.55072 0.0
7.629175 65.510025 102.86217 0.0
-29.646751 -61.289749 11.037849 1.0
-0.78695 9.1503 -33.476398 1.0
1.5136 7.926125 20.928675 2.0
4.9668 28.28055 -94.361198 4.0
4.723725 26.018934 -76.191673 4.0
0.143737 51.01062 91.905792 0.0
5.775525 32.7668 -83.582993 5.0
7.137737 84.337173 119.01239 0.0
-6.779537 -13.13945 57.127037 2.0
-6.188267 20.239267 -110.81029 3.0
5.6282 27.179699 -61.694149 4.0
-3.126162 24.148613 7.051312 0.0
-0.174622 13.133717 1.542144 2.0
5.071833 22.515284 -33.339203 0.0
3.034375 25.794025 -0.794154 0.0
-27.815542 -72.259422 12.749116 1.0
-29.283134 -67.041931 12.236061 1.0
11.739683 25.652836 37.964195 0.0
8.6614 36.31155 -68.922302 5.0
1.215746 27.201374 20.601562 0.0
-48.353348 -122.62722 1.676633 1.0
-29.982037 -68.439301 12.679934 1.0
3.588491 16.665733 -9.309957 0.0
-0.455247 10.655457 -35.473343 1.0
5.774556 28.202049 -73.034805 4.0
-4.087162 104.78006 141.2148 0.0
-0.099475 88.36808 126.60381 0.0
3.7126 31.616325 -88.354774 4.0
-1.373225 94.666573 132.1156 0.0
24.407867 57.752224 -37.668186 5.0
-15.220882 -19.800793 -5.634673 1.0
8.880585 33.309227 51.247044 0.0
-1.52435 86.742249 127.699 0.0
6.415242 23.015934 -115.11526 3.0
-22.2621 121.86494 149.978 0.0
-2.513933 103.54235 135.3811 0.0
11.1004 39.39785 -60.445999 5.0
-43.415699 -111.2203 9.32745 1.0
-30.162926 -98.753967 9.157749 1.0
-1.216853 13.157466 -110.54003 3.0
3.051566 26.644882 9.880401 0.0
-1.6221 46.637188 81.863853 0.0
8.4269 38.105049 -127.3293 4.0
-3.62945 15.4466 4.31965 2.0
7.207 34.120449 -132.10561 4.0
2.3498 7.19795 -28.8594 1.0
25.018976 60.362965 -36.686871 5.0
13.356084 45.8815 80.196365 0.0
-18.820007 -50.22377 8.297156 1.0
4.464416 14.338667 9.1785 2.0
-32.906761 -85.11377 13.26638 1.0
-10.095775 113.92493 148.64136 0.0
-36.239937 -105.88454 7.580195 1.0
-43.35545 -109.19604 10.332874 1.0
5.226317 26.313732 -59.31398 4.0
5.461816 28.193884 -66.342873 4.0
39.413284 62.822811 -29.871649 5.0
-6.404262 -14.126003 58.342186 2.0
-36.993042 -86.859314 15.416065 1.0
-5.0652 104.08175 139.9628 0.0
-22.397236 -66.349838 13.648906 1.0
13.960916 49.889164 84.759705 0.0
5.884367 39.467499 -141.40533 4.0
1.598638 25.942877 7.613112 0.0
4.043994 19.83814 -32.743103 0.0
35.237186 62.120804 -32.085594 5.0
6.308317 21.07225 -5.677317 0.0
4.28 17.61935 1.0818 0.0
-7.602963 -9.185518 -15.125075 1.0
4.598325 24.169424 -60.124275 4.0
6.581 33.714203 49.197651 0.0
-0.5754 15.93995 -12.0102 2.0
-16.389509 -17.269665 -5.767483 1.0
-0.543548 67.465881 107.30296 0.0
-19.450565 -36.614826 2.897139 1.0
4.379 17.535851 -4.1791 0.0
-48.352577 -119.65525 7.3385 1.0
24.623707 46.620293 -37.202644 5.0
8.898275 49.109077 82.358803 0.0
5.7976 35.582451 -104.6343 4.0
-39.370174 -115.13763 3.131863 1.0
-41.75695 -114.68835 4.65575 1.0
-25.656284 -57.455173 10.012529 1.0
8.318599 26.035334 32.003017 0.0
2.204233 30.7356 38.904366 0.0
23.6647 44.49715 -41.2038 5.0
9.314241 43.097977 -150.34856 4.0
-2.253071 92.951408 133.91698 0.0
-8.7222 112.09995 142.43954 0.0
-38.909634 -97.677856 12.8865 1.0
-2.918013 102.1491 140.49736 0.0
-2.226577 -7.515304 52.04361 2.0
-0.936141 22.88632 -24.741552 0.0
-4.131288 -11.816063 -10.711037 1.0
4.978008 25.638592 -49.897385 4.0
1.246111 65.321587 105.18841 0.0
2.208783 25.084625 -22.009199 0.0
8.321456 27.108673 34.969181 0.0
5.81318 32.677155 45.59071 0.0
-2.3809 37.804352 61.532001 0.0
1.1529 24.77734 -26.412407 0.0
0.734275 28.192625 28.983974 0.0
53.715099 75.687897 -31.608749 5.0
38.298882 66.995972 -32.758591 5.0
-2.251227 11.582504 -36.743679 1.0
-23.644629 -55.133831 9.369201 1.0
1.317917 25.179283 -2.66455 0.0
-1.287564 25.046021 7.779545 0.0
-25.01885 -67.410477 12.291475 1.0
5.725465 16.201401 -7.534019 0.0
0.185431 0.883996 40.079792 2.0
-1.59775 7.124995 20.52211 2.0
-5.907 -18.961575 -4.88665 1.0
-30.23703 -84.822556 12.44677 1.0
-5.066338 12.103613 16.283075 2.0
-43.601151 -106.59885 11.64135 1.0
17.389214 46.333023 -47.805565 5.0
4.627299 25.718597 8.451079 0.0
-38.032578 -93.27829 15.610369 1.0
-4.371887 102.75002 139.21202 0.0
12.6804 24.15485 35.788048 0.0
5.347494 22.665932 -20.826529 0.0
-3.5101 104.71545 139.66205 0.0
0.860375 27.9739 25.999125 0.0
0.5594 26.064951 12.0182 0.0
-25.171898 -76.658432 13.61875 1.0
10.328249 26.134323 37.243759 0.0
-24.993526 -73.676247 13.591625 1.0
13.010078 28.859253 44.330147 0.0
0.746529 11.629232 -109.62608 3.0
4.608142 85.045166 120.42413 0.0
-0.811919 93.262589 129.95444 0.0
-2.09308 76.074005 115.49874 0.0
8.612871 44.748245 76.055275 0.0
-18.367516 -23.259468 -3.404606 1.0
0.790677 29.602066 36.06773 0.0
-13.461513 -21.892447 -5.803652 1.0
2.8642 77.074852 116.595 0.0
-3.5513 6.905 -32.152901 1.0
-0.528775 74.303986 113.82549 0.0
4.016775 26.283337 -79.50975 4.0
-0.602842 17.62447 -112.49884 3.0
4.731825 34.982899 -113.62701 4.0
-19.00495 -41.840408 4.13741 1.0
5.421833 32.596848 43.921555 0.0
-1.0985 11.16035 8.73285 2.0
-14.293449 121.5269 146.05591 0.0
4.334046 35.129532 50.19957 0.0
-1.93605 82.796982 124.05933 0.0
-1.7505 -11.13585 56.126202 2.0
1.183762 26.514795 14.889276 0.0
0.5777 25.070049 2.9269 0.0
1.0199 24.901449 -24.5165 0.0
7.1102 31.14535 -99.58065 4.0
-7.505394 -5.711619 -18.41243 1.0
9.192604 75.232689 111.77968 0.0
1.5153 22.23295 -53.956402 4.0
-1.2378 47.15255 83.538002 0.0
7.900817 81.756775 116.83684 0.0
-2.0743 19.472151 -21.429501 0.0
-3.8315 110.18715 137.4021 0.0
-3.6177 6.54325 24.1378 2.0
-1.967131 44.523685 75.752274 0.0
-1.46645 96.039474 136.67618 0.0
0.6796 24.676849 -5.4097 0.0
3.3062 23.559658 -62.513775 4.0
7.3007 35.523048 -140.80099 4.0
6.862875 36.927006 -114.9957 4.0
8.914975 36.443043 60.36055 0.0
13.089928 38.589951 -59.720757 5.0
-39.990051 -106.66637 9.436883 1.0
-31.88735 -78.844048 13.687799 1.0
3.6409 28.078251 -57.863201 4.0
-5.450015 9.238861 -31.08638 1.0
-2.684813 30.994225 50.866547 0.0
16.36405 53.805374 -42.344452 5.0
-2.97536 28.200665 33.408947 0.0
6.156185 74.275276 111.73506 0.0
5.432136 28.627979 -92.932602 4.0
20.43507 50.578548 -42.194046 5.0
5.2797 27.035049 -118.7572 3.0
-11.385441 -8.602579 -13.782893 1.0
8.8023 36.210651 -133.8248 4.0
-22.879625 -63.798473 12.331775 1.0
1.2428 24.925362 -34.462288 0.0
-2.4579 97.102203 135.54041 0.0
30.983791 62.492374 -34.162888 5.0
-3.033233 -32.090683 81.329369 2.0
-1.551608 16.431255 -6.819425 2.0
-5.819567 14.783923 16.063421 2.0
7.419142 33.381851 -101.52307 4.0
27.038864 56.477242 -36.156517 5.0
-12.3896 -2.8285 -19.307283 1.0
-20.322828 -59.647614 12.446415 1.0
-30.396162 -65.952026 12.16064 1.0
-20.776852 -36.888771 3.572225 1.0
-30.908768 -81.492348 12.861333 1.0
-1.359137 29.311026 38.271431 0.0
-3.332935 5.863818 -106.87207 3.0
7.69 37.362751 -146.98904 4.0
1.667975 25.122725 -31.291149 0.0
-0.768375 7.859506 -107.65939 3.0
-16.657978 -52.644966 9.492628 1.0
3.826192 37.02924 57.418259 0.0
-2.23655 40.53315 66.410858 0.0
15.728937 52.113773 88.288902 0.0
-21.175411 -46.730423 6.601252 1.0
32.756214 65.276199 -33.840469 5.0
12.985367 58.62606 98.074814 0.0
-34.500458 -102.12778 8.842695 1.0
-4.059283 1.669 35.605133 2.0
-7.310595 109.97621 146.27383 0.0
-34.50296 -84.524918 14.090302 1.0
21.538071 46.033825 -42.918152 5.0
-6.090845 106.24066 141.53365 0.0
-38.505348 -99.36795 12.143202 1.0
24.731556 51.638103 -37.551472 5.0
-35.821575 -109.4244 5.149202 1.0
-2.040767 17.81085 -4.672675 2.0
0.742817 0.394192 -24.053759 1.0
4.6965 15.94375 -111.1946 3.0
7.620133 59.364235 95.744263 0.0
5.248608 31.067167 39.736881 0.0
-7.968537 15.217973 -108.71255 3.0
-1.187738 1.893857 35.398392 2.0
0.58505 102.36537 131.7919 0.0
5.015208 34.189594 -121.70172 4.0
-10.051838 118.86522 144.13171 0.0
36.57885 62.874748 -31.490849 5.0
0.982667 44.792603 75.771835 0.0
44.628418 67.061081 -29.883217 5.0
1.945431 16.021935 -111.80136 3.0
2.896133 45.472057 76.390793 0.0
-1.2648 8.19995 17.3894 2.0
5.534374 30.215456 -76.580475 4.0
2.309575 88.162552 123.83725 0.0
8.806349 41.219269 -145.4323 4.0
3.999754 32.724731 -103.34635 4.0
-12.485478 116.06454 149.27588 0.0
5.182625 35.530113 -131.94623 4.0
6.981861 17.264498 2.226528 0.0
9.744525 52.376953 87.027634 0.0
-23.547562 -83.802124 13.165563 1.0
25.720549 54.142426 -36.884418 5.0
12.162075 33.462223 -72.836174 5.0
7.645487 36.723999 -116.30966 4.0
-2.6736 20.64715 -14.818701 0.0
4.66944 27.162819 -44.874161 4.0
3.523419 75.168343 112.951 0.0
20.903553 55.398727 -40.151703 5.0
4.10995 17.688347 -11.324883 0.0
-2.988553 21.587038 -7.521986 0.0
13.193937 63.161957 102.09149 0.0
11.4458 36.513454 -65.188019 5.0
4.37695 31.323626 -122.7344 3.0
-27.1385 -51.686172 9.20695 1.0
-5.16665 108.64474 138.39485 0.0
13.062133 53.197117 88.707504 0.0
-22.939625 -75.212173 14.501076 1.0
-43.383724 -118.78822 2.168825 1.0
-37.141403 -113.4337 3.11775 1.0
1.0959 47.618252 82.718597 0.0
-3.5819 88.636047 132.14771 0.0
-40.135391 -104.49976 10.747246 1.0
-8.80249 10.607685 -106.55325 3.0
57.137897 73.907722 -30.612867 5.0
-15.174283 -35.554157 2.245222 1.0
3.379672 30.584349 -91.250313 4.0
-0.495639 91.496147 128.95567 0.0
5.598025 18.632961 -14.855488 0.0
-5.840481 6.024517 -106.8336 3.0
-10.978488 -33.512352 1.947588 1.0
-2.559633 88.059875 130.18359 0.0
6.737742 39.345287 -133.6098 4.0
1.641983 16.856277 -15.41447 2.0
19.025101 50.871132 -42.867149 5.0
27.4212 49.034649 -33.801498 5.0
-52.698849 -128.40987 -1.986175 1.0
-18.546 124.52335 148.0787 0.0
-42.151241 -106.22685 10.9109 1.0
-23.998711 -48.336845 8.292077 1.0
4.596199 22.034487 -40.806648 0.0
-5.28355 -6.3546 49.069851 2.0
2.889075 26.05825 -40.356049 0.0
3.4626 26.165649 -33.129311 0.0
5.779425 37.906372 -145.38106 4.0
11.69335 34.493099 58.077751 0.0
-2.61715 25.433449 12.43145 0.0
1.67085 10.594033 -108.75414 3.0
2.994448 11.057756 -35.832321 1.0
14.491566 39.012459 -57.220184 5.0
-0.5802 84.613846 126.15105 0.0
-47.931599 -120.86362 4.915467 1.0
4.49612 25.100889 -0.27948 0.0
15.292143 41.821651 -53.678032 5.0
37.007568 67.656982 -33.335243 5.0
-17.068687 -32.075375 0.0911 1.0
-1.508312 15.140558 -3.811954 2.0
-3.81155 4.345233 -105.62141 3.0
-28.617043 -64.085114 11.854809 1.0
5.268437 56.177837 91.375305 0.0
5.0233 96.346748 126.4033 0.0
6.879105 22.622948 10.307333 0.0
-7.539434 115.32275 140.84561 0.0
0.1051 70.004601 109.3669 0.0
-4.6715 112.81432 138.62035 0.0
-6.359232 10.362473 -32.260536 1.0
-28.938061 -59.728874 10.280804 1.0
-28.179001 -55.49865 9.9028 1.0
-6.718258 9.374441 24.655743 2.0
8.2131 76.013474 112.59308 0.0
-16.379965 -44.975281 6.475034 1.0
-42.484421 -103.65218 11.998468 1.0
-28.50761 -62.732155 11.147489 1.0
4.846275 23.6138 -22.933151 0.0
6.1573 37.225552 -119.5117 4.0
18.503834 47.955536 -45.525837 5.0
-2.965293 5.185047 -29.8424 1.0
-1.091021 23.281477 -17.240755 0.0
9.238192 39.033112 -143.74854 4.0
3.07345 40.680199 66.494705 0.0
-1.337662 20.655006 -48.154823 1.0
7.151875 69.401833 106.97221 0.0
13.1272 42.351299 76.1502 0.0
3.0757 48.137585 81.512566 0.0
6.074121 24.746992 14.887706 0.0
3.045081 10.696117 14.208734 2.0
-4.6085 -29.85055 76.124603 2.0
13.968214 36.177246 -60.375961 5.0
7.1367 24.819374 21.071976 0.0
-12.654449 -20.6089 -7.041525 1.0
31.635 59.172951 -33.6031 5.0
-2.291529 71.209915 110.02694 0.0
4.058996 18.372274 -112.8602 3.0
16.2019 48.20145 83.588501 0.0
-37.629326 -106.1912 7.8844 1.0
13.0926 46.955868 -49.493458 5.0
-18.142733 -60.361385 13.578732 1.0
-0.1142 7.350867 -30.077215 1.0
5.2569 22.627451 -36.3638 0.0
3.008858 18.026249 -26.311508 0.0
-18.422865 -20.805468 -4.134112 1.0
1.0786 24.90295 -8.3559 0.0
7.1576 34.75095 -134.59419 4.0
4.110636 11.223798 17.641365 2.0
6.5776 19.297649 -7.8574 0.0
11.235163 35.240211 60.521301 0.0
-4.06971 26.496588 17.252779 0.0
3.964875 33.778725 -124.05153 3.0
6.1932 35.869274 -139.58661 4.0
4.7162 27.4543 -49.099548 4.0
-8.8818 113.3634 144.83784 0.0
5.276288 37.287712 -134.85583 4.0
-25.950966 -44.232014 8.981434 1.0
13.742092 34.598591 60.637825 0.0
3.510038 13.645399 4.35785 2.0
-11.990126 117.62796 146.48582 0.0
5.388137 34.473236 -130.36105 4.0
54.759663 72.985222 -30.423552 5.0
18.38995 45.592419 -47.06517 5.0
42.365265 65.624046 -30.297239 5.0
-6.690824 -17.11305 61.664948 2.0
4.7567 26.93565 -85.193001 4.0
13.052163 76.464287 112.50217 0.0
-1.554967 102.98302 134.21768 0.0
0.354487 75.572891 115.80846 0.0
0.69552 6.81912 -28.985292 1.0
3.7806 67.162651 106.4807 0.0
38.674 71.653648 -32.824902 5.0
23.013163 47.887505 -39.337429 5.0
7.9431 39.399799 -131.0112 4.0
14.909161 53.85915 90.429543 0.0
4.356255 26.262022 -31.280926 0.0
17.548145 41.872501 -51.463501 5.0
-2.206438 95.689133 134.51524 0.0
-1.640494 27.866495 23.993471 0.0
3.148125 29.367325 -86.754272 4.0
-1.74705 102.06876 136.3831 0.0
3.446833 25.933916 -16.551233 0.0
23.590158 54.044292 -38.659458 5.0
1.232684 6.577255 25.760891 2.0
-0.34839 23.57531 -29.939606 0.0
-3.8879 28.25915 30.52235 0.0
-3.14705 98.624084 139.13997 0.0
8.893 38.29805 -152.31171 4.0
4.61627 25.011662 -25.415075 0.0
-32.190838 -92.540031 11.562149 1.0
-44.524246 -115.39334 6.771429 1.0
-3.764775 27.314751 20.15395 0.0
10.057257 31.129786 46.926739 0.0
-56.452187 -133.06464 -5.008287 1.0
-5.07295 -16.4051 -6.5095 1.0
6.167833 25.342133 18.391058 0.0
-3.363767 -0.639033 -21.867199 1.0
-1.258085 13.506711 -0.962317 2.0
3.707609 14.877592 -0.090811 2.0
-1.0938 81.295197 122.4614 0.0
2.739425 25.33075 -14.0699 0.0
-9.9988 3.60655 -23.695299 1.0
-2.247076 -3.172601 46.990875 2.0
1.30685 8.818701 -31.314199 1.0
-33.035553 132.1662 151.64262 0.0
11.3095 43.604553 -53.742775 5.0
0.381925 22.60717 -40.916168 0.0
2.40535 78.597252 118.1566 0.0
-3.365625 17.2505 6.667237 2.0
6.359769 29.27684 -91.535873 4.0
0.509825 71.557945 111.16813 0.0
7.3936 35.308849 -127.2651 4.0
-23.5194 -38.28125 4.499067 1.0
-8.97135 110.4245 146.7961 0.0
-3.741036 25.617371 13.344557 0.0
-6.308334 12.088117 19.365034 2.0
-3.103883 9.525017 15.946684 2.0
4.716158 53.337677 88.403305 0.0
0.530754 21.220602 -38.286648 0.0
-0.9543 57.658176 100.02583 0.0
2.279653 28.103735 26.391541 0.0
0.106375 14.78185 -5.46395 2.0
-23.317984 -71.211586 14.13327 1.0
7.088858 36.623878 -68.779755 5.0
19.11381 48.848698 -44.380589 5.0
3.9545 27.74575 -91.382401 4.0
-36.694672 -91.565628 14.547087 1.0
3.853975 26.573999 -36.729149 0.0
25.114416 58.945766 -37.000534 5.0
7.483559 30.438976 -84.449562 4.0
9.6465 31.03195 -81.690247 5.0
-1.409667 48.750305 88.364853 0.0
4.5931 31.38365 -84.373802 4.0
2.6223 20.352568 -37.798664 0.0
2.010067 33.648659 49.377602 0.0
-4.7685 -5.17745 -17.247499 1.0
4.870666 23.306408 -38.154526 0.0
22.564611 53.344166 -39.614841 5.0
21.165863 41.555336 -49.11705 5.0
12.6536 36.076851 -63.818298 5.0
3.103967 28.494452 -68.752327 4.0
2.911646 29.801453 33.990002 0.0
5.644166 69.946587 107.5431 0.0
4.976083 34.122993 -77.850708 5.0
7.106 32.688049 -95.982002 4.0
-10.623967 -17.15486 -9.372151 1.0
14.8211 51.686272 -44.032547 5.0
12.4077 79.49765 114.7993 0.0
6.1197 37.975925 -148.55959 4.0
-2.62935 8.089245 18.280565 2.0
2.930903 17.605583 -18.032549 0.0
8.331249 33.355396 -76.906418 5.0
-5.101337 -18.770813 64.330948 2.0
4.7097 20.249475 -31.39715 0.0
-22.511024 126.10626 149.30484 0.0
6.079567 40.33876 -150.0378 4.0
-7.47856 -7.902967 50.22855 2.0
-0.158233 26.881535 17.947283 0.0
-5.847761 12.370922 -109.18643 3.0
8.3088 79.6632 115.02724 0.0
40.809601 61.844749 -27.616899 5.0
-5.6486 113.88585 140.80847 0.0
13.785283 56.956982 95.486107 0.0
4.561962 16.203314 7.252886 0.0
5.036675 29.641001 -100.61357 4.0
-6.736983 11.877525 21.221058 2.0
5.502244 38.621414 -137.85725 4.0
-4.6676 12.83595 12.681801 2.0
3.763123 13.428585 7.174979 2.0
22.991789 45.676071 -40.7211 5.0
-1.210635 23.994812 -3.413881 0.0
-41.297634 -109.66398 8.463834 1.0
-6.373775 6.525337 28.731262 2.0
14.532875 29.338699 46.194397 0.0
25.189899 49.580551 -36.063702 5.0
11.4644 60.18375 99.001404 0.0
7.535754 37.840034 -64.932022 5.0
-19.618073 -32.394768 1.011103 1.0
-4.292661 108.35707 136.83725 0.0
7.529463 32.036537 -81.125473 5.0
4.630116 24.994495 -22.569599 0.0
3.405979 25.998255 -6.376875 0.0
4.434589 12.868917 15.604667 2.0
8.575278 43.034374 -148.04004 4.0
4.5292 73.84745 112.0351 0.0
-0.044367 7.503509 -35.536995 1.0
-0.03735 29.90885 -116.39799 3.0
-2.58015 73.352951 111.75365 0.0
-19.191401 118.95045 150.25999 0.0
12.729342 44.242123 78.097496 0.0
27.778896 53.856689 -34.784897 5.0
-0.396117 10.280233 10.793016 2.0
-2.81025 78.924698 119.1978 0.0
3.748268 34.035343 48.420841 0.0
-0.459137 48.142227 85.176254 0.0
1.555492 25.490841 1.947654 0.0
1.719 103.9207 132.60736 0.0
26.72267 51.712608 -34.922348 5.0
14.607048 51.59272 86.942566 0.0
10.64293 27.339661 39.858871 0.0
6.4009 79.471024 116.17043 0.0
9.867451 49.7369 83.632248 0.0
-0.232969 12.396008 4.434581 2.0
-7.517829 -6.461966 48.443237 2.0
-4.789494 -7.891177 -14.828555 1.0
0.326725 15.740974 -9.922 2.0
-28.190424 -96.470787 10.370204 1.0
6.6129 32.14275 -117.4265 4.0
4.8246 34.973274 -118.33363 4.0
-2.607996 15.735196 -111.40623 3.0
-4.90489 27.963024 32.288322 0.0
10.33305 67.263199 105.05666 0.0
-34.10635 -104.2863 7.1438 1.0
0.160665 18.203785 -22.055809 0.0
4.464683 24.16345 -55.078671 4.0
12.050312 34.407261 -68.432053 5.0
-31.918734 -89.850983 11.932767 1.0
7.595502 66.630974 104.18396 0.0
-22.954594 -58.358894 9.978603 1.0
7.840853 19.376991 9.640175 0.0
-3.338424 16.356602 -41.764336 1.0
2.983779 25.779364 -4.093983 0.0
4.5763 31.13755 -110.4657 4.0
9.030746 64.195518 101.74319 0.0
-0.900262 5.269023 26.8358 2.0
-2.634056 -0.779256 41.537994 2.0
-3.232938 94.244751 136.84492 0.0
-1.54895 100.96073 133.79422 0.0
34.065136 57.56311 -29.91893 5.0
4.587392 34.049721 -125.36613 4.0
-1.302275 13.981062 -40.799561 1.0
8.506336 18.709476 12.192213 0.0
0.14075 42.389297 70.748123 0.0
-41.938248 -116.7559 3.0339 1.0
3.156225 14.549909 -41.947632 1.0
3.71325 24.400749 -68.743851 4.0
3.173267 11.113182 12.361966 2.0
21.604256 48.46582 -41.58371 5.0
1.476331 24.379416 -58.630615 4.0
19.948185 43.834846 -46.83593 5.0
-0.956612 19.38007 -13.544804 0.0
-24.9454 -39.785843 6.078483 1.0
5.899667 17.246479 -8.898195 0.0
-0.801575 -4.837375 -18.77795 1.0
-13.225794 -4.658378 -17.305 1.0
47.246368 71.532539 -31.423376 5.0
0.5016 25.377726 4.321625 0.0
0.359156 24.461777 -16.565338 0.0
-1.211 97.810989 135.28656 0.0
2.53095 17.760683 -45.654633 1.0
10.587513 75.428177 111.8118 0.0
-0.45469 21.994831 -32.261139 0.0
2.9679 75.972351 115.4857 0.0
-9.832825 -9.745987 -14.248513 1.0
-7.064865 -12.987629 -10.946639 1.0
-44.19265 -108.29468 11.3832 1.0
-5.310625 9.681667 20.391186 2.0
13.6813 72.865448 109.656 0.0
1.652858 40.184116 65.802505 0.0
7.8237 33.435249 -109.1314 4.0
-51.020557 -126.43909 -0.604063 1.0
-3.9971 35.416176 58.488049 0.0
-5.47975 111.3457 137.28189 0.0
5.76775 22.343681 -11.244267 0.0
9.150367 43.211391 73.587997 0.0
-0.605892 4.523083 29.330542 2.0
7.032766 21.859436 -114.269 3.0
-26.0305 -62.82233 11.138819 1.0
25.837749 55.882332 -36.952034 5.0
2.067097 24.401024 -63.816277 4.0
4.932171 21.213669 -51.147064 4.0
9.700659 30.664074 45.650925 0.0
-7.222767 2.953712 -24.178612 1.0
-0.675 20.635851 -8.1596 0.0
8.2523 29.256708 40.16415 0.0
3.258447 94.353569 126.81216 0.0
14.021445 31.629297 50.027164 0.0
-1.596733 23.644917 -1.964883 0.0
2.633795 8.604963 -30.25108 1.0
8.91625 54.478699 89.783447 0.0
-1.661354 -3.07261 -20.124716 1.0
3.100091 26.045372 3.389179 0.0
-2.3327 69.425453 108.3684 0.0
-3.790975 28.156269 27.578789 0.0
-5.711243 13.120283 16.999569 2.0
5.2763 25.47805 -62.119598 4.0
1.556496 102.00037 130.62537 0.0
3.185758 54.907707 92.238663 0.0
7.95045 32.228729 47.541851 0.0
-3.644317 2.091833 -25.617849 1.0
-33.452705 -93.282356 11.431275 1.0
20.830967 49.219925 -42.500511 5.0
20.536659 53.033478 -40.889099 5.0
17.0805 48.273052 -46.066563 5.0
-2.969517 3.731444 30.681402 2.0
5.420617 16.636078 -10.330046 0.0
12.12148 31.644051 49.008308 0.0
28.546415 61.78001 -35.173782 5.0
-18.410759 -38.787926 3.013487 1.0
-12.039351 119.2665 144.15439 0.0
-1.371141 28.578728 34.620338 0.0
3.343806 27.226101 -84.884628 4.0
0.38112 2.631074 35.787277 2.0
5.5226 33.87405 48.046349 0.0
-1.069575 30.824249 45.114532 0.0
6.426296 49.391804 81.46283 0.0
21.520718 44.254951 -44.846581 5.0
-40.461685 -97.829536 13.185733 1.0
-47.2477 -117.24285 8.5201 1.0
-33.398026 -96.542877 11.241875 1.0
0.0621 93.847054 131.2036 0.0
-7.19205 7.544816 28.097866 2.0
-27.362062 -91.384911 12.645313 1.0
1.5897 37.912552 61.323002 0.0
-3.169 5.68535 25.261499 2.0
4.359551 32.002876 -85.895004 5.0
0.52179 22.945929 -42.733189 4.0
6.06725 37.105103 57.397148 0.0
1.185056 14.575888 -4.575913 2.0
-0.3592 3.69855 30.838699 2.0
18.306145 55.048058 -41.329132 5.0
7.0786 72.747353 110.44085 0.0
1.344333 31.123999 41.633633 0.0
5.4038 32.661251 -119.9551 4.0
5.7083 28.432751 -89.855202 4.0
1.312344 23.63114 -51.427841 4.0
3.3737 19.651726 -49.042801 1.0
5.9413 29.28945 -121.1636 3.0
-3.399475 23.021925 2.99795 0.0
-10.332809 -0.454072 -21.094704 1.0
6.32795 33.865799 -77.625748 5.0
2.556567 19.934546 -50.250988 1.0
-36.571568 -108.42407 6.341501 1.0
-6.16497 -1.30748 41.76067 2.0
-10.005202 -23.940626 -3.640188 1.0
3.727411 30.708418 35.283829 0.0
-21.157995 -63.808609 14.177133 1.0
-34.324345 -106.55337 5.88501 1.0
14.892525 49.671936 -45.714413 5.0
2.231388 17.963737 -20.780275 0.0
3.149266 26.019117 -35.289997 0.0
-20.627424 -61.092949 13.157925 1.0
-28.650402 128.24722 150.67195 0.0
12.028956 30.58946 47.053852 0.0
46.64315 64.585777 -26.290676 5.0
4.3914 25.293716 -72.923065 4.0
-16.3386 -55.808552 10.6959 1.0
-11.415594 -24.396126 -3.749906 1.0
-15.764341 -27.660355 -2.168658 1.0
-19.058346 -58.899837 13.095284 1.0
18.35924 50.112049 -43.847702 5.0
-1.613422 106.52103 133.58208 0.0
-0.154615 18.422462 -46.958408 1.0
28.400501 63.898872 -35.05595 5.0
7.956467 25.151001 -117.99786 3.0
18.04904 39.854763 -53.78249 5.0
-33.712654 -102.98274 7.857305 1.0
-5.6777 106.21585 139.72644 0.0
22.244709 44.350471 -43.598541 5.0
13.182924 40.112625 -59.192974 5.0
-20.568083 -68.0326 15.734334 1.0
-14.932131 -33.144337 0.412581 1.0
-1.368578 35.299873 57.839989 0.0
-26.589634 -67.921707 11.941216 1.0
7.61765 38.115101 -124.65337 4.0
-23.986023 -81.407951 13.7497 1.0
-22.5923 -60.839306 11.24148 1.0
-12.17605 114.0553 148.30945 0.0
-0.3611 12.14475 -38.601898 1.0
-4.68805 3.72845 -27.71805 1.0
-22.845051 123.5258 150.10861 0.0
-24.3962 -75.131683 14.352534 1.0
7.234775 38.088501 -152.05424 4.0
1.565372 54.419739 94.392067 0.0
3.9066 30.30275 -120.998 3.0
4.887906 25.322882 -47.497894 4.0
-5.081591 26.802025 18.146917 0.0
-1.0072 91.675751 130.3237 0.0
-12.789256 -11.678205 -11.025128 1.0
-14.01916 -48.741791 6.81517 1.0
5.1354 25.90255 -40.400002 0.0
12.116796 51.176941 85.805779 0.0
0.7059 14.119049 -2.457633 2.0
-7.5631 3.90465 34.502647 2.0
1.09065 3.4783 34.384899 2.0
-30.6374 -88.712952 12.7774 1.0
3.6689 28.074551 -61.684223 4.0
-3.240869 -6.542707 -16.010954 1.0
6.374784 26.100395 23.572338 0.0
-2.617238 2.002644 34.560432 2.0
-6.893633 0.377733 39.335785 2.0
4.692525 93.916046 125.21233 0.0
-24.711901 -79.672546 13.8813 1.0
2.381013 91.600006 125.67451 0.0
21.806101 46.54855 -41.430801 5.0
8.5076 39.70145 66.295235 0.0
-24.056107 -62.806427 11.052002 1.0
0.806283 50.489532 89.221397 0.0
5.778925 86.177002 120.59249 0.0
7.039725 23.30055 13.9366 0.0
3.1015 52.167217 88.553627 0.0
6.031808 37.618225 -124.3213 4.0
14.182603 48.456749 -47.349644 5.0
3.587883 60.369244 98.359108 0.0
6.1859 53.972099 88.572845 0.0
-0.134313 20.596762 -32.690437 0.0
5.011508 22.944752 -115.25634 3.0
0.815933 9.851667 12.493188 2.0
8.94195 42.077126 -55.811653 5.0
5.42975 27.468601 -60.3601 4.0
13.8777 27.588949 41.781799 0.0
4.756638 33.053677 -116.17459 4.0
-3.027717 -6.462568 50.642731 2.0
-13.019829 -25.99445 -3.667081 1.0
7.892675 35.813515 -137.74503 4.0
-29.597244 -81.428848 12.445896 1.0
40.046951 65.078705 -31.26515 5.0
15.991024 46.394753 81.591827 0.0
1.164725 20.840551 -40.084549 0.0
1.997081 27.654537 23.372456 0.0
-16.904549 -23.1908 -3.4668 1.0
6.798892 52.656952 86.653801 0.0
-22.240923 -42.189175 6.114042 1.0
-2.5611 28.97155 40.52 0.0
-21.11075 -49.9646 7.13885 1.0
-5.181501 13.605616 14.292185 2.0
7.151 41.749352 -143.8065 4.0
-26.004078 -71.659821 12.82395 1.0
20.779572 42.857155 -47.359165 5.0
-3.069467 100.25506 136.94043 0.0
-1.671963 46.145775 80.517334 0.0
4.82723 24.043762 -30.967621 0.0
-5.40655 8.5958 22.69875 2.0
-1.221262 88.838539 129.319 0.0
-13.6642 -31.337051 0.02215 1.0
4.3098 16.743349 -1.2832 0.0
-4.014762 -16.42709 61.964241 2.0
9.5718 87.756126 120.45544 0.0
-3.123675 6.56275 22.856998 2.0
1.156231 21.532974 -114.39799 3.0
17.244751 45.188499 -49.442551 5.0
7.1121 33.61235 -78.781998 5.0
10.3639 42.341148 -151.5213 4.0
3.855517 54.060917 90.355469 0.0
1.734188 25.988314 -62.102886 4.0
-17.328499 119.8721 148.6868 0.0
-32.5798 -100.30121 8.909917 1.0
-0.131325 17.392399 -19.343725 2.0
-0.89665 20.502499 -10.91715 0.0
-23.3393 -43.886215 7.091538 1.0
2.510933 27.473549 -77.305367 4.0
-2.08965 16.11865 -2.91865 2.0
-2.28065 105.0782 137.25305 0.0
8.209948 29.230642 -122.83424 3.0
-9.7206 -22.266346 -4.471446 1.0
6.802 31.73765 -111.2439 4.0
-1.9161 0.2732 39.160549 2.0
22.544321 60.026196 -37.955799 5.0
-31.635 -63.599449 11.716367 1.0
3.9585 26.30595 -29.069401 0.0
-43.648602 -112.94766 8.193931 1.0
8.876333 32.408432 -125.53333 3.0
0.3394 -0.38615 42.496201 2.0
-13.854864 -41.634346 5.598414 1.0
6.091583 29.236992 -80.891083 4.0
9.0784 30.42605 -82.9963 5.0
-0.189924 20.563978 -113.59176 3.0
8.931191 40.576317 -143.84041 4.0
2.673945 57.06731 95.669304 0.0
-6.823914 -9.589863 -14.078477 1.0
2.8961 28.118876 -83.756874 4.0
16.289362 49.534222 -45.334133 5.0
12.756166 69.578636 107.17142 0.0
-11.988255 -29.516376 -0.180696 1.0
21.425034 51.290768 -41.176407 5.0
-2.5987 12.01025 8.4808 2.0
-9.417808 -11.025536 -13.92012 1.0
15.088867 44.750076 -50.651875 5.0
-3.6925 86.801949 129.99989 0.0
-2.96631 29.290466 42.986523 0.0
-4.030096 14.774975 -39.648369 1.0
5.874752 28.513998 -75.797913 4.0
34.094116 62.935356 -33.000233 5.0
7.620833 40.37841 -138.45215 4.0
6.147008 16.256695 -4.751262 0.0
-1.890069 23.982475 3.20745 0.0
-5.074904 -0.522969 40.074764 2.0
1.613075 25.931076 -116.50584 3.0
0.8394 33.952553 52.08305 0.0
-10.368854 -20.354479 -6.192028 1.0
9.130966 36.939507 61.750916 0.0
5.005354 29.156775 31.616278 0.0
1.656259 10.971819 10.156807 2.0
20.105 46.07785 -44.836201 5.0
8.148758 34.571259 -119.90057 4.0
0.756973 32.519669 47.402405 0.0
0.785483 23.97497 -44.927532 4.0
-20.024799 -62.66135 15.0707 1.0
1.8962 25.546001 -43.11095 4.0
0.462497 53.527672 95.551552 0.0
-2.053722 6.188043 -29.961456 1.0
6.030256 36.993099 -118.08463 4.0
-2.563455 33.778736 55.82198 0.0
4.785075 33.414223 -79.903786 5.0
-48.757526 -124.66481 -1.585838 1.0
-53.529949 -129.3858 -2.88895 1.0
5.031192 46.566509 76.825127 0.0
2.2438 25.725849 4.9291 0.0
4.5123 32.763248 -112.9362 4.0
2.8499 63.624802 103.1395 0.0
-34.473976 -89.758247 13.36536 1.0
19.113783 53.246101 -41.634209 5.0
0.774563 52.119625 92.67749 0.0
9.274668 42.90377 -143.36649 4.0
30.478888 53.863152 -31.395758 5.0
-28.375771 -70.924728 12.78945 1.0
1.390133 24.877525 -28.9505 0.0
8.56145 37.06525 -130.17526 4.0
-8.949154 -9.251831 -15.278029 1.0
-1.6043 107.0121 135.61932 0.0
-53.126747 -130.36708 -0.480241 1.0
-6.013375 103.44107 142.62486 0.0
-21.743769 -69.050934 15.115387 1.0
-30.070267 -57.661785 9.425567 1.0
4.2403 26.282101 -3.1368 0.0
-0.468425 9.174362 -108.43112 3.0
-7.680164 -0.804053 -21.230669 1.0
2.8408 4.8709 32.167351 2.0
-13.768295 -37.263077 3.790544 1.0
4.7984 35.370651 -112.2906 4.0
-4.023965 -3.135042 44.931664 2.0
-14.901234 -46.575523 6.76275 1.0
8.579625 56.145523 92.014771 0.0
-24.885704 -65.598969 11.691582 1.0
6.858013 30.179274 -86.913666 4.0
-0.1177 24.31575 -12.6151 0.0
-3.405204 99.933357 139.36571 0.0
4.009825 82.810226 119.20364 0.0
-22.6945 -53.991287 8.546801 1.0
4.021767 66.090187 103.99934 0.0
6.461075 75.606178 112.91113 0.0
0.3587 54.84095 97.579498 0.0
23.972244 50.581947 -38.323032 5.0
6.8888 32.850449 -123.8982 4.0
-41.863987 -110.84843 8.139375 1.0
1.3211 55.900593 96.49279 0.0
2.689 29.24415 -81.871101 4.0
0.477441 4.067319 31.925087 2.0
-32.626717 -105.11597 5.918883 1.0
5.5077 50.613251 84.146797 0.0
-3.793966 100.43625 140.56099 0.0
-25.394825 -84.217827 13.192274 1.0
-36.461227 -96.811417 12.104841 1.0
-3.00122 10.964771 -35.264511 1.0
-0.947783 15.997721 -43.113472 1.0
4.5452 15.72245 -12.6999 0.0
9.62229 20.857458 21.939182 0.0
-5.538108 7.152725 26.205791 2.0
2.197516 26.763943 -58.234329 4.0
-13.910376 118.09363 148.1519 0.0
4.587317 25.354898 -21.270433 0.0
-26.489004 -86.943687 12.863014 1.0
6.115739 40.827045 65.324089 0.0
5.419875 25.264999 -117.14162 3.0
-1.056131 27.185989 19.618929 0.0
-3.0303 106.80105 137.8002 0.0
6.38465 33.543575 -127.43373 4.0
5.3778 38.328949 -135.9758 4.0
-8.420151 6.706892 30.76955 2.0
1.2918 18.958574 -26.477776 0.0
-2.952256 -4.793838 -18.036957 1.0
-43.340912 -120.14891 0.5342 1.0
3.45205 22.25395 -48.81295 4.0
-19.771299 -49.271828 8.228674 1.0
-16.224522 -21.900354 -4.176158 1.0
11.677383 35.760048 62.459 0.0
-0.1091 22.903067 -35.87085 0.0
-1.3999 -6.56295 -16.5291 1.0
-5.586775 0.877175 37.680874 2.0
13.008975 35.740623 65.00322 0.0
6.495867 63.931194 100.89127 0.0
1.936994 80.703781 119.26579 0.0
4.753887 48.165352 80.113541 0.0
-4.91548 -11.45401 55.109261 2.0
5.447755 38.665771 58.073597 0.0
2.95292 51.315811 87.309425 0.0
4.877313 28.635563 -63.329723 4.0
13.9626 34.28215 -64.142197 5.0
6.691367 40.183601 -140.09012 4.0
-3.938566 11.501983 12.867534 2.0
-6.162992 4.160867 -26.005459 1.0
20.442801 58.68185 -39.1283 5.0
-5.378 26.22695 15.4871 0.0
1.895142 37.318501 59.635876 0.0
5.104266 34.582069 -102.73055 4.0
6.125825 35.952026 -127.4408 4.0
-0.108787 99.512787 131.88702 0.0
-6.428152 9.931556 -107.98656 3.0
-6.110823 -18.01022 63.02026 2.0
6.9731 33.64555 -129.0696 4.0
4.360931 24.300224 -63.210384 4.0
4.038552 32.276169 41.599335 0.0
0.37595 25.860657 9.86625 0.0
4.311634 80.70771 117.46433 0.0
-1.624183 97.467888 137.76688 0.0
-2.577822 89.00444 131.15829 0.0
-23.5266 -46.28495 7.6111 1.0
-14.586532 -11.524987 -10.414859 1.0
2.247069 25.391869 -32.800251 0.0
6.741348 27.099733 29.642519 0.0
-3.222475 104.11142 138.0495 0.0
-0.462965 32.220959 49.906864 0.0
5.58425 30.148499 -86.0578 4.0
23.256227 55.813583 -38.615479 5.0
4.884025 34.770988 -105.98224 4.0
37.655605 59.240444 -28.048532 5.0
0.114223 23.992607 -31.933666 0.0
-12.175606 -13.072183 -10.684334 1.0
16.880795 50.558323 -44.196278 5.0
-20.297234 -29.246231 -0.983233 1.0
-1.651629 20.097525 -112.82527 3.0
1.226925 58.527676 99.489525 0.0
4.6703 25.124784 -26.899599 0.0
-1.2846 21.79925 -49.642601 4.0
-3.733575 102.38063 138.082 0.0
-28.1623 131.01706 151.2094 0.0
8.198566 36.991753 -122.66259 4.0
6.1367 40.410252 -152.37254 4.0
-34.144798 -83.002899 14.48515 1.0
13.310101 35.19315 62.910316 0.0
10.990966 40.817394 72.891304 0.0
-3.460895 108.32669 135.22433 0.0
-7.4983 -20.42215 -4.4625 1.0
2.187721 15.732914 -9.747074 2.0
8.962606 71.990791 109.26281 0.0
18.461973 52.057999 -42.501984 5.0
5.43401 22.265549 -22.230047 0.0
6.108612 65.289757 102.48787 0.0
8.119425 34.329399 -117.4011 4.0
1.95735 48.657101 84.138199 0.0
-6.211163 108.97499 139.71591 0.0
-6.07161 4.734037 -106.1467 3.0
-0.42675 93.747467 132.49747 0.0
-4.8665 -28.407633 74.247299 2.0
5.360424 37.04987 -130.04774 4.0
-17.551403 -18.859695 -4.911979 1.0
-22.410723 -73.865982 14.74159 1.0
-18.661833 -29.892517 -0.1683 1.0
47.800648 66.329247 -27.486086 5.0
2.1345 15.04525 -7.0928 2.0
7.917675 37.237598 -120.10388 4.0
0.098025 24.01425 -54.067337 4.0
3.0095 12.16215 7.719 2.0
7.655817 34.651119 53.441864 0.0
-26.122387 -82.151337 13.065704 1.0
2.366242 68.813934 108.4238 0.0
6.367075 33.360352 -93.365448 4.0
13.447413 34.126408 58.599121 0.0
2.640769 28.556225 -75.740738 4.0
-2.976879 28.053627 28.629881 0.0
13.38385 26.368423 39.419724 0.0
2.564798 20.202915 -113.79971 3.0
2.712675 71.068878 110.18928 0.0
-55.033302 -130.49524 -2.6263 1.0
27.594494 59.893387 -35.699516 5.0
-29.3834 -77.41008 13.20845 1.0
31.325588 57.637527 -32.765873 5.0
2.196225 74.130325 113.32529 0.0
32.390526 55.003056 -30.064587 5.0
-46.070587 -122.36694 -0.223812 1.0
-1.25175 -1.223735 43.868519 2.0
-0.181161 -1.596294 -22.349733 1.0
-3.294865 -28.066578 76.152672 2.0
-30.736893 -70.585464 13.48627 1.0
10.56485 34.003201 55.056801 0.0
41.816956 71.246414 -32.583107 5.0
4.6412 23.200438 -46.3564 4.0
-0.559454 77.57402 118.01978 0.0
-0.69955 14.924425 -6.9625 2.0
5.870775 24.5926 12.138175 0.0
6.465625 36.353325 -112.56987 4.0
0.72765 25.12595 -0.25765 0.0
-20.8883 122.21955 150.10724 0.0
3.80835 20.112249 -35.315166 0.0
4.6897 24.20055 -20.023001 0.0
2.023262 24.468975 -55.48864 4.0
