# .PCD v0.7 - Point Cloud Data file format
VERSION 0.7
FIELDS x y z label
SIZE 4 4 4 4
TYPE F F F U
COUNT 1 1 1 1
WIDTH 1569
HEIGHT 1
VIEWPOINT 0 0 0 1 0 0 0
POINTS 1569
DATA ascii
5.71055 1.77545 -13.33695 0.0
-0.687036 2.916493 14.084007 1.0
2.829 0.497725 -4.37305 1.0
2.18045 1.23485 1.25715 1.0
6.09955 -0.56165 -18.08285 0.0
6.20615 2.03635 -3.55885 1.0
3.709917 -0.908142 9.906232 2.0
3.84205 1.41345 -4.98845 0.0
-4.110413 1.30815 14.119526 1.0
6.874 -0.25475 -22.0273 0.0
3.25205 -4.00445 3.07985 1.0
4.834484 0.287283 0.089317 2.0
-7.17755 1.40335 22.407049 1.0
-2.20805 0.04595 9.12955 1.0
6.891025 -0.0475 -11.29975 0.0
-2.05535 1.23005 10.946116 1.0
3.484017 -1.84895 -3.290417 1.0
7.02405 1.89755 -13.53435 0.0
4.87925 -2.86825 -0.32945 1.0
5.81025 -0.12935 -20.55405 0.0
5.64075 -0.59335 -9.486851 0.0
4.05445 0.4966 -9.893 0.0
7.55255 -0.22145 -23.10075 0.0
4.1204 -1.123 -5.2788 0.0
3.308375 -1.328737 3.714513 2.0
-0.1601 0.70905 6.5205 1.0
-0.40785 -3.7327 20.924049 2.0
-4.101384 2.547283 17.091841 1.0
5.65255 -0.27345 -18.074051 0.0
7.790167 1.35075 -21.467714 0.0
3.0425 0.4355 9.23925 2.0
1.74145 4.431417 17.739416 1.0
2.4908 0.85115 -2.24385 1.0
-1.490225 3.33055 16.724911 1.0
5.867438 0.040825 -17.6957 0.0
5.73625 2.01785 -3.92775 1.0
3.7595 -1.35675 -4.9409 0.0
3.44345 0.849 4.5277 2.0
2.28 -1.876475 7.9314 2.0
5.12675 -0.7003 -3.4039 0.0
1.33235 -3.5843 20.382851 2.0
7.152 0.5444 -11.709249 0.0
4.1215 1.23635 -8.777625 0.0
5.732983 -0.08565 -21.69515 0.0
3.34395 -1.506513 11.878051 2.0
2.48395 -3.65695 1.889117 1.0
-5.17885 2.986425 20.453575 1.0
-7.381636 -1.052007 18.693707 1.0
4.01725 -1.00825 5.67445 2.0
5.3541 -1.83625 -4.65955 0.0
4.506617 -0.127167 2.902208 2.0
-6.10613 2.44447 22.106289 1.0
5.62395 -1.6563 -1.4647 1.0
3.73585 1.419 -4.13915 1.0
6.960214 2.459059 -22.093386 0.0
1.91995 -1.14795 -0.08215 1.0
5.35495 0.15975 -18.545349 0.0
3.2449 -4.110125 4.041925 1.0
7.17755 0.080088 -14.501814 0.0
-0.664317 -0.716817 5.744583 1.0
3.9184 -1.12735 0.56455 2.0
6.91675 0.90645 -3.786317 1.0
-6.665713 -2.288137 16.309162 1.0
0.472967 3.084817 13.697049 1.0
-4.99475 -3.13355 13.80915 1.0
7.38265 1.62705 -12.82315 0.0
2.520333 2.624433 7.886883 1.0
7.5802 0.65365 -17.41535 0.0
4.891317 0.065733 -11.755234 0.0
3.17271 0.07163 13.26107 2.0
0.2963 -1.7004 15.109 2.0
0.093117 3.6793 17.344149 1.0
5.871417 1.894817 -14.119983 0.0
7.653263 0.100075 -20.296839 0.0
1.07531 -1.89455 12.50961 2.0
3.514383 -0.279783 10.208217 2.0
-0.54685 1.79425 9.65045 1.0
5.47455 2.88045 5.68465 1.0
1.305317 -2.110483 12.27855 2.0
6.35335 1.96465 -1.69215 1.0
2.53115 0.7545 8.0966 2.0
-2.45045 1.63535 12.39205 1.0
-6.26665 1.26555 17.89155 1.0
6.30695 -0.27175 -12.363434 0.0
5.07699 -2.040577 -3.29037 0.0
1.28425 -1.924575 11.868851 2.0
-0.09365 -1.825083 18.091818 2.0
3.71769 2.71357 4.52627 1.0
-1.740783 0.720117 9.444283 1.0
-0.74115 3.37145 16.4146 1.0
-7.32495 -1.40415 18.82115 1.0
4.28775 -0.00895 -11.33175 0.0
7.32025 0.9273 -12.275725 0.0
4.16537 -0.74049 4.98027 2.0
3.25135 -0.44555 -5.46095 0.0
-1.41365 -1.86785 6.67045 1.0
3.0638 -1.926525 17.913124 2.0
5.63505 1.82645 -10.13095 0.0
3.52855 -1.467367 5.917292 2.0
-1.719883 4.563816 22.674551 1.0
-2.706725 4.022606 21.082806 1.0
7.07905 0.497083 -3.343667 1.0
4.5496 1.2176 -11.691799 0.0
1.700179 -3.085979 17.707016 2.0
-1.53695 -3.38405 8.34465 1.0
3.20425 -0.48305 15.73925 2.0
1.31695 -4.21525 4.12145 1.0
-0.62195 -3.48375 6.359475 1.0
7.504083 1.316817 -14.970216 0.0
7.269283 -0.277483 -23.700617 0.0
3.898779 2.939207 8.519507 1.0
4.9048 1.58655 -8.66695 0.0
1.09019 -2.88951 16.112019 2.0
2.729817 0.67065 9.666284 2.0
-5.646103 -0.12775 15.49212 1.0
4.9068 2.14 -1.57275 1.0
-0.305295 3.072114 14.348995 1.0
3.73625 0.51065 -9.21445 0.0
-0.14193 0.12349 5.87859 1.0
6.523266 -0.307 -13.084599 0.0
5.903828 -0.884614 -4.086914 0.0
-3.3718 1.36225 13.115367 1.0
-0.158183 1.118683 7.060916 1.0
7.81015 0.15185 -19.227751 0.0
-1.24205 1.2947 9.45995 1.0
-0.30615 3.698759 17.704632 1.0
4.86565 3.711275 12.5047 1.0
-0.43905 -3.833717 22.303518 2.0
-4.09265 4.48685 22.643417 1.0
-6.80335 1.03925 18.71855 1.0
3.372 2.41655 3.46945 1.0
2.80655 -2.33705 19.00635 2.0
4.94675 -0.41135 -10.33765 0.0
1.42565 -2.2106 1.2224 1.0
5.37665 -0.10355 -16.68475 0.0
4.3782 -0.7956 0.31005 2.0
4.95355 -0.27432 -1.85915 2.0
3.27005 1.571617 -0.82665 1.0
6.09707 1.89993 -13.17175 0.0
1.49147 -3.01757 16.92421 2.0
7.227 -0.41255 -18.501301 0.0
0.8083 -2.2427 2.5009 1.0
-2.81205 -2.28145 9.77555 1.0
2.692534 3.0206 10.924733 1.0
0.690672 -3.113406 3.131316 1.0
7.275417 0.065017 -20.920118 0.0
7.25895 -0.27425 -21.6772 0.0
6.25885 3.38415 9.12885 1.0
3.160275 1.638625 -0.07515 1.0
1.89745 -2.1794 10.8282 2.0
4.506045 2.892158 6.922041 1.0
6.33055 2.05185 -22.279949 0.0
5.749064 -1.33725 -4.896678 0.0
6.9382 -0.3272 -15.10565 0.0
-4.037483 3.664517 20.103584 1.0
2.67161 -3.94279 2.88457 1.0
1.65775 2.19005 7.44675 1.0
7.4881 0.16965 -24.2771 0.0
3.294264 2.816093 7.091636 1.0
-2.4175 1.8757 12.943501 1.0
6.676 2.2974 -14.913799 0.0
4.492383 -1.555483 -5.041083 0.0
6.63545 1.0562 -10.3815 0.0
3.48918 -1.5039 6.68869 2.0
1.310441 2.657814 10.725714 1.0
2.011893 -1.878478 -0.161621 1.0
1.515323 -1.088777 9.696314 2.0
-2.86905 -3.438 10.5299 1.0
7.28125 -0.39015 -12.14365 0.0
5.31165 -0.54575 -3.78165 0.0
6.3043 2.1282 -15.713699 0.0
-0.515283 -2.289839 18.893116 2.0
-4.14371 -0.48666 12.28192 1.0
3.94755 -0.70615 8.134739 2.0
1.59035 -0.10955 14.90785 2.0
3.3104 -1.85935 12.470051 2.0
4.72143 3.46876 11.510809 1.0
2.79375 0.38275 12.90895 2.0
-1.1516 -2.9042 21.696363 2.0
1.8546 4.67675 18.664051 1.0
1.50444 -2.30172 12.53455 2.0
-5.68327 2.072497 18.71899 1.0
-6.344583 -2.472933 15.714499 1.0
3.886975 2.709619 4.103543 1.0
1.03443 -1.91155 1.91115 1.0
5.19055 2.59115 1.48225 1.0
5.55395 0.88775 -21.224449 0.0
1.862077 -3.461323 20.678167 2.0
6.12895 1.84555 -11.34695 0.0
1.3436 -0.27645 1.7268 1.0
2.8777 0.9553 -3.5004 1.0
3.78665 -0.36295 9.53225 2.0
7.076416 -0.44805 -19.031616 0.0
4.143975 2.8916 5.87865 1.0
3.940741 -1.131468 4.46965 2.0
2.27519 1.11871 0.05059 1.0
3.023027 -1.681596 16.521757 2.0
7.20345 -0.46535 -15.81405 0.0
2.734683 -2.95725 0.079483 1.0
4.91175 0.8649 -15.1337 0.0
-5.219875 2.0349 17.668499 1.0
-0.870225 3.8737 19.1229 1.0
-5.558584 3.3178 21.825699 1.0
0.20415 -3.12095 4.22505 1.0
-0.770906 1.139119 8.280838 1.0
1.293179 2.732485 11.102209 1.0
-1.54145 0.55545 9.04795 1.0
-7.17735 1.548433 21.241468 1.0
4.12165 -1.26895 0.89071 2.0
4.74855 -0.05235 -10.75445 0.0
-4.00855 -2.46305 11.99195 1.0
-4.449925 2.015025 16.312176 1.0
7.131283 2.459483 4.092484 1.0
-0.36783 -5.10219 8.69631 1.0
2.89499 1.33909 -1.06841 1.0
4.88635 0.36535 -14.30245 0.0
3.75805 0.49625 5.41205 2.0
3.686683 -0.689483 -6.649317 0.0
-0.484683 -1.52645 4.92785 1.0
3.930377 -1.866077 -3.685877 0.0
7.16935 0.085925 -13.3172 0.0
7.70795 1.72915 -17.129049 0.0
-1.42265 3.020417 15.331216 1.0
0.911393 -3.585178 19.900507 2.0
3.2687 1.15075 -4.09505 1.0
5.104083 2.793183 4.715583 1.0
2.10105 0.70305 -1.0472 1.0
5.3298 -0.0698 -12.8526 0.0
6.71295 2.37925 -23.848749 0.0
1.60285 2.76525 11.29805 1.0
1.84775 -3.50815 21.08065 2.0
8.1147 1.27785 -21.238152 0.0
-1.521885 4.132879 20.88958 1.0
0.62715 -3.54135 4.25455 1.0
6.88285 -0.74115 -16.707251 0.0
5.29365 -1.186662 -6.93582 0.0
-2.297595 -0.707161 8.695528 1.0
-3.275483 -3.10035 11.292316 1.0
-3.337825 3.575275 18.941376 1.0
7.05845 1.06115 -2.38555 1.0
3.68165 -0.24735 -7.60655 0.0
2.898483 0.495783 10.052017 2.0
6.63995 2.03625 0.04875 1.0
3.502661 2.739061 5.329106 1.0
3.14625 -0.63705 -4.64145 0.0
7.305125 0.101975 -19.775101 0.0
-0.82085 0.024317 6.899916 1.0
-6.20025 -2.95705 15.16235 1.0
6.16925 -0.027117 -21.311584 0.0
7.26765 -0.2503 -20.328651 0.0
-0.50045 3.92395 19.57165 1.0
6.12155 2.44965 2.4989 1.0
-5.694072 1.923319 18.293264 1.0
-6.475127 0.490714 17.698755 1.0
5.930684 3.477517 9.337749 1.0
-0.90215 -2.54605 6.40235 1.0
0.108268 3.920486 18.330667 1.0
2.090283 1.328317 2.06745 1.0
4.45095 0.20095 4.44795 2.0
3.93945 -2.37625 -2.84875 1.0
-2.083683 0.86875 10.293866 1.0
0.78775 -2.64155 15.37335 2.0
4.092979 0.076636 -8.921507 0.0
7.662078 1.511893 -15.304441 0.0
3.08785 2.063533 2.304367 1.0
6.06385 1.74035 -8.75045 0.0
4.49891 3.55779 12.28673 1.0
6.079936 -0.685921 -8.880092 0.0
5.8751 -0.99165 -2.45655 1.0
0.257283 0.68965 5.506784 1.0
-2.15015 3.56495 18.23525 1.0
0.41715 -0.02755 4.28345 1.0
-6.264473 0.097968 16.892393 1.0
7.120208 -0.302036 -22.326178 0.0
4.291383 -0.93985 -6.122551 0.0
4.2294 -0.83305 3.0643 2.0
6.72085 1.09045 -5.644117 0.0
-2.700437 4.069758 21.727293 1.0
3.20585 4.45315 16.001949 1.0
-0.07155 -3.090117 4.733316 1.0
5.72965 2.5695 2.11285 1.0
-0.38635 -0.83225 5.11625 1.0
-2.02465 -2.24325 8.06485 1.0
-2.15893 2.95743 15.89343 1.0
-1.33815 3.99045 20.319151 1.0
2.75505 -1.55405 5.71875 2.0
4.29369 2.82093 4.27841 1.0
-0.02805 0.1054 5.41505 1.0
5.69765 0.05945 -24.5019 0.0
4.28645 0.691283 1.66015 2.0
2.88609 0.68465 -4.68003 1.0
5.08723 -1.69929 -5.13097 0.0
3.50716 3.299284 12.070602 1.0
3.88415 0.6641 4.11435 2.0
4.35005 1.10395 -10.99115 0.0
7.697884 0.30485 -22.093285 0.0
7.88072 0.7067 -21.28487 0.0
2.274017 1.059917 -0.312317 1.0
-0.88055 2.01205 10.99725 1.0
7.129816 -0.325417 -21.138718 0.0
4.3394 -2.12165 -4.018 0.0
4.340717 -1.133517 -5.733316 0.0
3.11405 -1.60225 6.18655 2.0
-6.95475 -1.281596 17.499157 1.0
2.41155 -1.23605 -0.84845 1.0
6.685964 -0.440064 -17.666208 0.0
6.6982 2.539 -16.952301 0.0
8.12155 0.98945 -21.935551 0.0
-3.49237 -0.14397 10.89093 1.0
-3.335978 3.168364 17.474691 1.0
5.617117 0.435183 -19.308683 0.0
6.858925 2.07025 1.55695 1.0
-1.31785 -3.91835 23.31805 2.0
2.779483 -2.333983 -1.74035 1.0
2.776216 2.62525 6.546517 1.0
6.07985 1.743517 -12.100183 0.0
-1.87325 2.134 12.6908 1.0
-2.25595 2.21415 13.3682 1.0
-0.946521 -1.896207 20.909952 2.0
1.320883 1.740183 6.059783 1.0
7.37905 0.23925 -18.06345 0.0
6.48985 1.30675 -7.234675 0.0
3.502055 2.970561 9.454911 1.0
5.16055 1.0792 -17.703049 0.0
7.26915 1.078483 -1.311017 1.0
6.36315 -0.40165 -17.400949 0.0
6.49565 -0.12275 -6.03835 0.0
5.552707 0.32505 -17.887249 0.0
-0.643667 -2.6881 5.708117 1.0
3.14256 -1.49213 17.286823 2.0
6.24085 -0.00995 -23.417351 0.0
-4.661026 3.634 22.084101 1.0
-6.84055 -1.7095 16.938225 1.0
6.97665 0.87725 -10.85825 0.0
0.64365 -4.20575 22.19665 2.0
7.09845 0.40045 -10.76655 0.0
-1.672583 1.867833 11.4906 1.0
7.36765 2.0728 -20.560452 0.0
2.276008 -2.463775 14.512008 2.0
0.061725 -3.52555 5.310575 1.0
0.369775 1.066275 5.306875 1.0
4.130506 -0.908924 3.895302 2.0
6.17125 -0.00555 -24.168051 0.0
1.350683 0.323583 1.92005 1.0
4.76905 0.23595 -0.35945 2.0
1.501173 -3.309419 18.508297 2.0
6.3792 2.0625 -22.9319 0.0
3.907983 0.28005 5.85325 2.0
-1.8515 -3.0377 8.2771 1.0
7.08925 2.718908 5.66334 1.0
1.7099 1.24495 2.69555 1.0
5.258034 3.698633 11.865016 1.0
-6.43857 0.24457 17.36817 1.0
0.306188 4.085796 18.691772 1.0
3.549017 -2.739717 -1.838683 1.0
8.08885 1.5162 -20.15555 0.0
6.839734 0.144617 -5.444316 0.0
1.518678 -3.283763 21.294201 2.0
-6.45795 -3.30415 15.547 1.0
5.48985 -2.21285 -1.82295 1.0
3.15905 0.79635 -7.09355 0.0
-5.249579 -1.508121 14.305938 1.0
3.913367 -1.087283 2.475567 2.0
1.688 5.0339 18.38155 1.0
2.03805 -2.48695 0.29255 1.0
-3.3598 3.9932 22.677151 1.0
-0.872717 -3.862317 7.307983 1.0
2.58035 -1.21055 -1.77675 1.0
0.42455 4.90245 20.58235 1.0
3.951944 -0.894481 6.881687 2.0
0.482325 -3.496987 19.510336 2.0
5.2465 1.75865 -5.27365 0.0
5.102172 2.442183 0.088561 1.0
-0.50993 -1.75561 19.70409 2.0
3.125017 -1.502317 14.102859 2.0
2.8849 -4.15955 3.6294 1.0
6.700949 -0.484333 -15.508949 0.0
2.138407 -2.964207 18.467178 2.0
3.72105 -0.06325 8.268983 2.0
2.41855 -2.61225 16.002649 2.0
-0.89505 1.7703 9.8532 1.0
1.04185 1.36925 4.94095 1.0
7.16435 2.30815 4.98565 1.0
-3.80465 -2.68165 11.66885 1.0
-1.97555 -1.04815 8.06935 1.0
3.78135 0.178825 6.927925 2.0
-2.57815 -1.12165 9.20175 1.0
6.01945 -0.7491 -3.162 0.0
-0.54739 -4.53415 8.301049 1.0
3.48961 1.92209 0.48045 1.0
5.47185 1.03435 -22.50975 0.0
-3.05125 0.058083 10.513583 1.0
-1.127887 -3.504638 22.745363 2.0
6.31935 -0.33755 -22.362499 0.0
4.86395 0.28515 -13.87735 0.0
4.396 0.0984 5.12905 2.0
0.54265 -1.21145 18.170349 2.0
2.53585 4.66615 17.12215 1.0
1.716777 -2.293864 11.920429 2.0
3.81975 2.78335 4.93685 1.0
-0.622583 0.05685 6.498083 1.0
1.892072 3.487817 14.70255 1.0
4.465332 -0.09343 3.280376 2.0
3.8435 -3.616475 1.9389 1.0
-0.6871 -2.06945 5.2972 1.0
7.5229 2.1033 -23.876476 0.0
7.32325 1.81185 -13.36105 0.0
3.463967 0.45175 6.72635 2.0
5.17655 1.62495 -12.92455 0.0
4.139517 1.089683 -9.859549 0.0
-1.82805 -2.91435 8.62225 1.0
-3.486763 -4.695775 12.082126 1.0
2.25921 -1.76359 8.67493 2.0
7.452484 0.49855 -15.439017 0.0
8.041874 1.11295 -20.7227 0.0
6.660193 -0.05485 -8.275493 0.0
-6.98145 1.9613 21.623852 1.0
5.37145 -2.43125 -0.85375 1.0
5.674433 2.651367 3.678333 1.0
7.2378 2.0558 -17.9797 0.0
5.65005 -1.89295 -2.93505 0.0
5.25045 1.56375 -13.9014 0.0
6.56023 1.15337 -8.540251 0.0
4.40115 -0.66445 -8.54975 0.0
-0.12365 -3.91245 23.302349 2.0
2.56605 -0.669083 -2.06675 1.0
-7.713418 0.89699 21.528992 1.0
7.496293 2.06835 2.944822 1.0
6.489204 -0.111142 -9.329696 0.0
-7.86795 -0.911117 19.886917 1.0
-6.76455 1.97335 22.17095 1.0
4.28105 -1.671083 -4.484983 0.0
2.49535 0.87615 9.89085 1.0
6.41535 2.16525 -20.190451 0.0
6.85215 1.508583 -1.701283 1.0
4.9389 -0.5316 -2.7084 1.0
1.117607 3.718436 16.489609 1.0
4.105195 0.480194 -10.318761 0.0
4.7109 1.48525 -10.662525 0.0
2.03325 -0.4992 -0.436025 1.0
5.89768 -1.08933 -5.48125 0.0
0.296875 -2.9251 17.539875 2.0
2.46935 0.81265 11.76515 1.0
-1.69195 0.266273 8.748427 1.0
4.32095 -0.16395 6.48205 2.0
3.425393 -1.627879 7.276521 2.0
3.064975 0.678025 -5.51205 0.0
-3.867666 0.296394 12.104951 1.0
2.705 -1.65235 6.477 2.0
-5.07745 3.07255 22.01285 1.0
2.2064 2.36535 7.5065 1.0
-2.692376 4.261512 22.514051 1.0
2.7451 1.7096 1.7545 1.0
-5.20985 -2.20925 13.98355 1.0
-0.543977 0.720759 7.295987 1.0
3.24195 0.74765 5.15645 2.0
3.245417 -1.08615 16.885416 2.0
7.25563 1.69351 -15.82901 0.0
-0.09465 -1.33075 18.54705 2.0
1.3236 1.08785 2.99425 1.0
2.87337 1.07991 -2.84071 1.0
1.71285 -1.2695 7.943 2.0
-6.481508 -0.488842 16.928959 1.0
-0.09295 -1.29395 4.238 1.0
5.90895 2.79795 6.63005 1.0
7.894417 1.518817 -18.03615 0.0
6.19075 -0.09755 -20.589451 0.0
6.17905 -0.39475 -19.698851 0.0
0.930994 -0.889083 17.713873 2.0
0.307336 1.265364 5.929393 1.0
2.72355 3.20625 12.14145 1.0
-1.296475 -1.495775 6.479575 1.0
7.6943 0.88955 -16.789452 0.0
1.509814 2.917254 11.690891 1.0
7.25475 0.95215 -0.76415 1.0
-1.0344 -4.4187 8.8174 1.0
5.49285 2.478428 -0.329494 1.0
2.083017 -1.765483 9.042783 2.0
0.87085 -1.3031 2.33005 1.0
-1.24015 -2.93485 22.600451 2.0
5.521325 1.6465 -8.119524 0.0
3.12345 0.69665 5.81735 2.0
7.263267 1.509117 -14.6239 0.0
-3.411284 1.614917 13.733617 1.0
0.294775 2.528784 11.484809 1.0
5.30745 1.23455 -16.371149 0.0
-0.106671 -3.705261 21.101498 2.0
-0.904017 -2.312517 20.511415 2.0
7.18185 0.89985 -13.1249 0.0
0.72425 5.00555 19.78405 1.0
3.30135 -1.24975 2.93685 2.0
-1.50635 -3.3195 7.885199 1.0
2.28835 2.15445 5.270425 1.0
-7.527557 1.52049 22.284018 1.0
3.31191 2.58201 4.67677 1.0
-0.82535 -0.715225 6.06775 1.0
-1.890467 2.4861 13.893841 1.0
4.17105 3.41525 11.710899 1.0
3.360325 -1.559675 8.697175 2.0
6.72785 2.36975 -19.223749 0.0
1.939092 -3.108434 20.695755 2.0
7.9092 1.4833 -23.622101 0.0
4.30509 0.51321 -11.52787 0.0
3.6272 -0.666467 10.224267 2.0
7.18505 2.17895 4.66115 1.0
7.38535 1.3262 -15.83465 0.0
7.36725 1.00705 -10.57235 0.0
3.05685 2.1468 2.7911 1.0
-6.013325 -1.31115 15.690075 1.0
5.302 3.506546 10.716624 1.0
5.47075 0.63595 -17.3328 0.0
-2.210517 -4.045417 9.963217 1.0
0.088705 -4.114841 22.721041 2.0
5.284522 -0.327379 -10.743508 0.0
5.69525 -0.10535 -14.701625 0.0
5.08012 1.84999 -3.92128 1.0
6.34995 -0.45435 -19.197849 0.0
3.54755 0.32295 -7.472817 0.0
3.150117 -0.302183 14.535851 2.0
4.35755 0.45245 -12.74685 0.0
7.7722 1.535675 -22.913025 0.0
-2.82755 2.438 14.675625 1.0
-1.510909 -0.101785 7.900906 1.0
-4.09029 3.33223 19.129339 1.0
4.74055 0.41105 1.50705 2.0
5.819717 -1.252233 -4.27715 0.0
7.4768 1.7481 1.877692 1.0
7.01125 1.75465 -11.91105 0.0
6.877963 0.495275 -5.664363 0.0
1.02985 -1.36335 12.01155 2.0
2.479183 0.329517 -2.72955 1.0
-5.054463 3.238362 21.0753 1.0
3.83405 -1.1076 7.54519 2.0
-4.658193 1.267336 14.865065 1.0
3.50483 -1.64877 9.918269 2.0
-3.08045 2.99445 16.80415 1.0
0.37145 -3.23595 18.077351 2.0
3.86215 1.2355 -7.2282 0.0
6.249964 -0.49115 -9.483078 0.0
-6.216983 1.615783 18.943018 1.0
-1.495417 -1.49805 6.831316 1.0
4.702667 2.480967 0.94805 1.0
6.623725 -0.033825 -9.9261 0.0
2.110325 1.073575 0.486912 1.0
-4.542088 2.741975 18.297707 1.0
2.109958 -4.325717 4.4888 1.0
1.84735 -1.78925 9.80835 2.0
4.298219 2.31685 0.675273 1.0
5.78145 2.28905 -1.97565 1.0
1.458392 -1.866133 1.256533 1.0
-1.34562 -0.27228 7.49891 1.0
4.90775 -1.53445 -6.37815 0.0
-3.13605 1.983783 14.294983 1.0
-7.88195 -1.0637 19.49715 1.0
-1.17215 -2.18185 21.23745 2.0
0.2747 0.2577 5.32525 1.0
5.71188 0.700544 -23.28871 0.0
1.854 -0.085325 0.10575 1.0
3.51433 1.53603 -2.16183 1.0
-1.106725 -4.1606 8.450476 1.0
-0.93125 -3.6858 23.928452 2.0
2.67785 1.9313 2.890625 1.0
4.5567 4.12715 13.25985 1.0
-7.1316 -1.8679 17.462049 1.0
3.25729 1.96499 1.32957 1.0
4.9228 1.5893 -9.2665 0.0
0.914283 2.447933 10.264733 1.0
4.5641 -2.39555 -2.54415 1.0
5.9967 -0.0119 -18.70805 0.0
7.20485 -0.55275 -13.50475 0.0
-7.676317 -1.660183 18.26055 1.0
2.82885 1.18925 -1.70955 1.0
3.877116 1.335783 -5.91255 0.0
1.04175 -4.39585 5.81355 1.0
5.87245 1.620183 -9.552684 0.0
7.5849 1.457 -14.4487 0.0
-5.920572 -2.496005 15.112372 1.0
2.6318 -2.65425 18.083149 2.0
1.1125 -1.5244 1.715225 1.0
5.471093 1.710821 -12.098422 0.0
6.248807 -0.440121 -8.704736 0.0
6.51665 2.308617 2.546483 1.0
5.324767 -1.85795 -3.4981 0.0
2.98615 -1.7518 17.06065 2.0
6.430483 -0.18615 -22.696753 0.0
6.09793 2.10385 -1.93834 1.0
1.40445 -3.02905 1.59375 1.0
-0.21275 -1.11835 4.56075 1.0
-3.508736 1.141979 12.886508 1.0
-0.90425 3.88845 19.82155 1.0
-4.510174 2.50635 17.71694 1.0
3.49135 -1.2091 2.3282 2.0
3.10225 -0.51543 -3.92499 1.0
5.80145 1.87175 -6.99415 0.0
3.131325 -0.09315 12.311874 2.0
3.17695 0.18625 10.58555 2.0
2.00515 4.61595 18.28075 1.0
1.38795 -2.41865 12.95935 2.0
0.909061 -2.961706 16.673462 2.0
-4.015717 -1.279717 11.760784 1.0
5.47475 0.65545 -4.31645 0.0
4.53685 1.60305 -6.01095 0.0
7.33175 -0.27985 -16.37565 0.0
6.7019 2.88255 6.11535 1.0
0.698158 -3.334058 18.662127 2.0
3.86945 -1.46145 2.97185 2.0
5.121383 -0.15425 -11.191051 0.0
2.283728 -2.636564 15.286385 2.0
2.671083 -3.417117 0.710317 1.0
0.15835 -5.25915 8.05745 1.0
8.008717 0.525017 -22.859064 0.0
7.885117 1.497217 -24.090967 0.0
6.489195 3.273794 8.277917 1.0
1.19265 4.85895 19.12265 1.0
4.32305 0.40005 -10.98625 0.0
-0.25725 2.0486 10.263226 1.0
-1.990475 -3.6619 9.7003 1.0
0.26775 4.58315 21.02915 2.0
0.86635 -3.98595 4.85165 1.0
1.75825 -1.42335 9.17425 2.0
1.080164 -3.114136 17.339193 2.0
6.894484 -0.331117 -15.881984 0.0
0.90565 -0.86805 11.45755 2.0
3.90695 3.37255 12.270383 1.0
-4.356635 -0.89758 12.66298 1.0
7.128916 -0.042617 -18.034683 0.0
5.10725 0.505217 -1.52495 2.0
3.815225 -1.032425 8.485825 2.0
0.719025 -3.7818 20.947075 2.0
3.14965 0.31305 -6.07125 0.0
7.03415 2.02265 -14.00925 0.0
6.36655 -0.16445 -8.08835 0.0
-4.12135 3.763504 20.894096 1.0
4.63835 0.95445 -13.19485 0.0
2.872617 -1.474783 4.28105 2.0
6.495883 1.48475 -4.55315 0.0
1.57845 -1.315317 0.752817 1.0
-1.29702 4.34222 21.468388 1.0
1.31105 -1.07425 10.68625 2.0
4.874075 2.9106 5.885825 1.0
1.75785 1.80095 4.91635 1.0
0.19755 1.81505 8.49715 1.0
1.75715 -1.19855 8.60915 2.0
1.36585 -0.554017 1.477383 1.0
0.313521 0.064979 4.714579 1.0
7.256383 2.068183 -18.471251 0.0
-4.13075 -2.77675 12.61055 1.0
7.345128 2.14355 -22.698616 0.0
2.77065 -0.03535 -3.82765 1.0
-1.264805 2.625172 13.705594 1.0
7.4597 1.5026 -17.318451 0.0
6.33725 1.84655 -2.98245 1.0
6.49245 -0.16095 -6.83675 0.0
-4.972417 -0.912767 13.901466 1.0
5.5027 0.89955 -20.56975 0.0
1.1065 -1.076775 1.874875 1.0
4.15895 -0.10155 7.26775 2.0
2.9359 3.9784 15.87405 1.0
7.39265 2.71135 4.59985 1.0
6.08315 -0.18565 -12.7465 0.0
7.20215 1.47305 -11.09575 0.0
1.8627 4.1801 17.250599 1.0
-5.58855 1.37705 17.024851 1.0
5.58125 0.55145 -19.83655 0.0
2.580116 -0.31105 -2.483383 1.0
-6.699859 2.681414 22.119225 1.0
6.09525 -0.47945 -14.0657 0.0
7.120138 2.308784 -20.741705 0.0
6.490638 3.102079 7.693362 1.0
-2.370239 -0.47295 9.03026 1.0
1.79955 0.61265 0.04245 1.0
-3.692714 0.67 12.307593 1.0
-6.3079 -1.68221 16.07873 1.0
2.67965 -2.21545 10.97945 2.0
-8.23915 0.1204 21.755051 1.0
5.48195 1.03055 -23.565901 0.0
2.301537 -1.721338 -0.724612 1.0
6.422717 -0.26285 -10.305417 0.0
1.683417 -1.935433 10.691667 2.0
7.12875 0.6909 -10.579149 0.0
3.110666 -1.752973 8.519627 2.0
-5.121 0.097317 14.523056 1.0
-2.952 1.38595 12.73195 1.0
-4.02075 -0.59145 11.76425 1.0
6.91295 0.882475 -6.287325 0.0
-0.69755 3.57675 17.557016 1.0
0.62045 -1.5184 13.65905 2.0
4.35755 -0.524417 3.456816 2.0
1.721179 -4.635478 5.725136 1.0
7.42755 0.03845 -10.95945 0.0
-2.270417 1.453617 11.721517 1.0
4.90415 0.3012 -12.882 0.0
-6.1733 2.364225 20.458612 1.0
-7.77775 0.37765 22.03425 1.0
4.99155 4.11205 12.17025 1.0
4.28621 3.87021 13.90791 1.0
3.3504 -1.42225 -3.2676 1.0
1.8221 -0.5802 16.0527 2.0
3.50475 -1.72255 5.23925 2.0
0.42445 -3.57295 4.7039 1.0
2.108595 3.914305 16.087851 1.0
4.259128 -3.44695 2.098883 1.0
3.60305 0.2536 7.63525 2.0
3.424875 -1.62505 9.06125 2.0
1.104217 -2.70385 2.07185 1.0
0.501483 -4.89155 7.681607 1.0
4.508584 -0.91125 -2.101283 2.0
-0.74487 -4.72585 8.93989 1.0
4.6449 1.55985 -5.0812 0.0
7.19985 1.97415 -17.41955 0.0
3.90845 0.16935 -9.75595 0.0
0.134388 -3.270519 18.903118 2.0
6.307836 -0.128407 -21.726866 0.0
5.60335 0.41745 -18.74025 0.0
4.3447 0.326725 2.93575 2.0
5.17445 0.90995 -16.948151 0.0
8.00425 1.33605 -19.459949 0.0
4.888176 2.912386 7.080496 1.0
4.27379 -0.28073 5.46347 2.0
4.94815 -2.58015 -0.954317 1.0
3.23985 -2.112317 -2.132333 1.0
-1.32965 -2.69615 22.31465 2.0
-1.10025 -1.87935 6.0238 1.0
2.6212 -0.119 -2.92085 1.0
2.22645 -1.61165 -0.35675 1.0
-1.16605 -3.34235 7.43405 1.0
-0.424717 -1.894283 18.356518 2.0
7.46965 2.35695 4.415383 1.0
4.870216 1.649683 -6.263783 0.0
4.80055 3.78895 12.87135 1.0
0.11475 4.33775 20.502251 1.0
6.35185 1.71645 -4.241917 1.0
0.141225 -2.472075 16.928801 2.0
2.44865 0.99565 -1.46725 1.0
6.068961 -0.714328 -6.660972 0.0
-4.42735 2.21435 16.73695 1.0
5.509107 -0.225621 -12.332506 0.0
-1.082443 -3.08845 6.714764 1.0
3.1628 -0.52865 15.015699 2.0
-1.38295 -2.41795 6.88715 1.0
3.522066 2.827533 6.447451 1.0
7.06035 -0.5076 -14.72285 0.0
2.17515 2.20835 5.93785 1.0
7.537675 1.686025 -19.739502 0.0
0.121436 -1.43795 19.525023 2.0
-7.63375 -1.80855 17.96175 1.0
-4.87686 2.060032 17.126558 1.0
1.0769 4.52613 19.101891 1.0
-0.493923 3.552568 17.08618 1.0
-5.21035 -1.13735 14.17985 1.0
5.880683 0.265117 -23.885384 0.0
4.075317 -2.385583 -2.505383 1.0
1.952964 -2.097679 9.311464 2.0
7.762023 1.107077 -17.271708 0.0
4.7541 -2.59385 -1.3607 1.0
3.8769 3.672667 13.286433 1.0
6.95665 1.76415 0.44065 1.0
3.719183 -1.689217 -4.266183 0.0
-6.43515 -1.49795 16.357124 1.0
-1.501337 2.70395 14.328175 1.0
3.20985 0.66185 -6.03565 0.0
6.92165 0.526833 -4.94065 0.0
4.40445 0.21655 -10.61735 0.0
0.99665 -3.24655 3.10155 1.0
-0.27821 -1.64385 19.934191 2.0
5.07337 2.87703 6.31615 1.0
7.706263 0.100625 -21.500811 0.0
3.693103 2.891869 7.742207 1.0
-3.48565 -1.510275 10.753076 1.0
3.62905 -0.86035 -5.92985 0.0
8.26505 1.37085 -21.63555 0.0
2.932917 -1.75035 7.677683 2.0
-3.060539 -1.910739 10.312639 1.0
7.67685 2.05215 2.35455 1.0
6.734057 0.909671 -7.940586 0.0
-3.23145 2.81055 16.150551 1.0
-7.098268 -0.900255 18.085958 1.0
3.71925 -2.81135 -1.23855 1.0
-5.838017 1.266017 17.33235 1.0
-2.54465 -2.67465 9.76195 1.0
-1.79375 -2.74405 7.82495 1.0
-0.16525 -2.14255 18.61335 2.0
-2.712087 -3.707787 10.669388 1.0
-0.44215 -1.56791 19.27977 2.0
7.967617 0.918083 -23.45455 0.0
5.59975 -1.33335 -2.04705 1.0
5.747638 -1.296763 -2.50195 1.0
7.06455 2.52855 -19.02055 0.0
3.06325 -0.73085 16.35535 2.0
-2.920417 2.950017 16.49325 1.0
2.78595 0.45525 12.21785 2.0
3.437125 -1.4545 10.677875 2.0
-7.8448 -1.3186 18.941799 1.0
3.508633 -3.508917 1.3181 1.0
3.68585 -1.15283 2.06309 2.0
4.26315 -0.864 2.3452 2.0
5.9111 0.1676 -22.752701 0.0
3.3074 -0.24695 11.351 2.0
6.906512 -0.298263 -24.032101 0.0
4.63365 1.58875 -7.14375 0.0
-1.20705 -3.42695 22.041349 2.0
5.867375 2.31535 -1.27615 1.0
-1.745197 4.380496 22.030256 1.0
4.19045 -0.60785 -7.01935 0.0
6.79045 1.38385 -2.79785 1.0
-2.476483 4.488017 22.743631 1.0
3.853783 -0.11145 7.743483 2.0
-3.500721 2.879126 16.89756 1.0
-3.0416 -0.9048 9.7804 1.0
0.15215 2.0064 9.46465 1.0
8.15155 1.64995 -23.26635 0.0
-7.888283 -0.354383 21.072433 1.0
0.099925 -1.9199 3.67815 1.0
-6.65995 1.869625 20.32325 1.0
6.3328 1.48875 -6.928425 0.0
-4.76805 -2.7412 13.5203 1.0
-6.657875 -1.910744 16.559582 1.0
3.7053 -3.334037 0.717987 1.0
6.34025 1.9438 -2.1291 1.0
-0.45745 -0.53595 5.544621 1.0
2.44815 2.19515 4.74235 1.0
6.64255 2.19675 3.24505 1.0
7.434 1.2947 -14.034901 0.0
6.32445 1.43155 -10.91365 0.0
7.2732 0.035 -22.557652 0.0
-5.53995 2.348503 19.259871 1.0
-5.518617 -3.510583 14.28465 1.0
4.888075 1.454325 -12.5746 0.0
7.633417 0.336983 -18.918266 0.0
1.303155 -3.74352 21.138348 2.0
-3.9715 0.7192 12.863617 1.0
0.95545 -4.46585 5.21925 1.0
6.27173 -0.29097 -17.10215 0.0
4.48845 3.07065 5.13965 1.0
4.287132 -0.081515 4.714327 2.0
7.25715 2.28145 -21.11455 0.0
6.677673 0.088065 -8.695105 0.0
-3.24795 1.05495 12.304883 1.0
6.7046 1.09305 -6.44045 0.0
1.96545 -3.84875 2.89635 1.0
-4.5957 3.3243 20.495399 1.0
-3.926967 3.542317 19.699732 1.0
6.04985 0.02415 -19.539551 0.0
-1.104142 4.553269 21.856417 1.0
2.88435 -2.19925 9.54125 2.0
7.82705 1.78555 -24.242849 0.0
-7.0163 1.4219 20.572948 1.0
4.79985 0.49785 -15.20495 0.0
-4.26633 -0.10963 12.485291 1.0
2.94035 1.62725 0.49955 1.0
6.6734 2.0535 -12.220949 0.0
7.11025 0.02715 -12.43935 0.0
-1.09145 -2.72515 6.76005 1.0
1.83235 -4.36585 5.16705 1.0
-2.47921 -3.49579 10.10381 1.0
4.52655 -0.27675 -9.093884 0.0
0.05845 -0.65285 4.41485 1.0
6.97915 -0.64545 -13.15135 0.0
4.498436 2.508464 1.480093 1.0
7.809484 1.110017 -17.871651 0.0
-5.335536 -0.686143 14.70221 1.0
0.102321 4.363151 19.928072 1.0
2.83195 1.39725 -0.39235 1.0
5.36015 -1.30385 -1.69735 1.0
4.29687 -0.53357 -7.50954 0.0
-1.46415 -2.9003 7.7567 1.0
4.17405 -2.7879 -1.11185 1.0
7.63895 1.95395 -23.46125 0.0
0.136533 -3.63855 20.485634 2.0
-0.8395 -5.0985 9.1551 1.0
-4.060725 2.01625 15.720625 1.0
5.7679 -0.12205 -20.88105 0.0
2.33195 -2.31055 -0.64105 1.0
5.6866 -1.492833 -3.68305 0.0
7.48265 -0.17605 -24.253651 0.0
3.21375 -0.911005 13.855161 2.0
3.65995 -3.80775 2.54805 1.0
7.46335 1.51435 -18.384899 0.0
0.533933 4.341017 19.325233 1.0
2.692617 -4.339467 4.270567 1.0
-4.53131 0.93188 14.11691 1.0
5.051 -2.8695 0.3581 1.0
5.93721 2.36417 0.32153 1.0
5.57415 0.270617 -18.285749 0.0
6.72255 0.24595 -4.07075 0.0
4.679874 -0.878358 -7.056803 0.0
7.713275 1.501625 -21.062923 0.0
4.58391 0.16227 1.35239 2.0
7.295763 2.273106 3.691982 1.0
-3.075383 3.849417 22.75795 1.0
7.04195 0.18805 -2.88575 1.0
-6.971194 1.752306 21.059216 1.0
-2.90645 3.986016 21.485216 1.0
3.88465 -0.301967 8.879634 2.0
6.25145 2.13985 -16.984051 0.0
2.152725 -1.089575 -0.6869 1.0
2.97965 -1.709483 14.881217 2.0
2.145888 -3.124373 20.353567 2.0
0.293379 3.437092 15.639607 1.0
0.05455 -4.74945 7.87285 1.0
1.30425 -3.70785 21.848249 2.0
6.9495 0.90935 -10.2868 0.0
1.86623 0.93695 0.67241 1.0
3.32895 -1.87845 6.62915 2.0
5.696479 2.530136 0.926821 1.0
4.35955 0.697917 0.972983 2.0
1.951 0.52115 -0.4944 1.0
-4.46565 3.41825 20.18745 1.0
-0.491665 3.849119 18.547796 1.0
4.260814 1.366795 -8.463804 0.0
7.8834 0.2579 -19.549252 0.0
0.18985 -2.42405 16.55205 2.0
-4.481639 -0.301266 12.912483 1.0
-1.47785 3.625083 17.975016 1.0
-5.313454 2.107358 18.071312 1.0
1.150183 -0.71525 1.958883 1.0
-7.706508 0.089215 21.118778 1.0
0.91031 1.87667 7.47909 1.0
7.07955 -0.110783 -19.486383 0.0
-3.62945 3.80345 20.190451 1.0
1.112783 -2.618183 13.94785 2.0
-2.957383 -3.08245 10.69545 1.0
2.904416 -1.918067 18.49415 2.0
2.98785 0.19015 11.94675 2.0
2.37475 -0.8993 -1.37615 1.0
-1.78595 1.15455 10.47655 1.0
4.64161 -3.03999 1.33255 1.0
1.40705 -2.70425 1.55895 1.0
2.77855 0.81055 -3.77595 1.0
0.56425 -2.40585 15.33865 2.0
7.20505 0.79705 -11.91035 0.0
4.451084 0.321217 1.86275 2.0
5.7011 -0.0654 -19.421749 0.0
0.45695 1.772228 7.904571 1.0
1.1132 -2.23245 13.1695 2.0
-6.60991 -0.31785 17.321171 1.0
2.908025 3.571125 14.281124 1.0
5.59395 1.81435 -4.64985 0.0
7.97805 1.08045 -19.771549 0.0
-2.921746 -4.29835 11.49242 1.0
-2.57255 -2.087817 9.482783 1.0
0.7605 -2.88385 2.8275 1.0
-4.294386 0.684922 13.306496 1.0
7.41695 1.83755 -19.00985 0.0
1.273283 1.4527 4.70145 1.0
2.109013 -4.53615 5.89915 1.0
6.3034 2.13665 -16.501299 0.0
-7.654 1.85855 22.353901 1.0
6.47715 2.2498 -14.30335 0.0
-0.552807 -3.751564 6.662107 1.0
6.7842 0.21625 -6.31825 0.0
2.42695 -2.93885 20.14875 2.0
-6.10275 -1.115233 15.934234 1.0
5.81295 1.7794 -12.5029 0.0
2.696107 -2.243421 13.287635 2.0
-6.65935 0.80075 18.18955 1.0
0.581125 4.653225 19.955 1.0
7.717968 1.28995 -20.276083 0.0
-4.17555 -1.37965 12.42425 1.0
-0.688325 -3.4626 21.710663 2.0
-0.308237 2.755612 13.084469 1.0
3.05545 -1.20685 -3.22875 1.0
-0.47715 -4.146483 7.235016 1.0
7.12875 1.08475 -3.2362 1.0
6.88255 2.47695 -17.883049 0.0
1.6811 -1.8633 0.513675 1.0
0.282017 -1.288083 3.49815 1.0
3.29499 3.53857 13.52561 1.0
4.280384 0.097783 -11.637817 0.0
-2.881191 2.054734 14.078374 1.0
-0.98995 -3.97785 23.65645 2.0
0.867083 4.17005 18.432617 1.0
0.091395 4.060168 18.933123 1.0
-2.31285 -1.90035 8.527116 1.0
6.15215 1.59335 -7.89405 0.0
-3.48806 0.292565 11.488061 1.0
5.333517 0.48525 -3.658383 1.0
4.38835 2.21515 -0.20985 1.0
1.41195 -1.086983 1.240717 1.0
-7.2429 -2.250675 17.489725 1.0
1.688717 2.082006 6.736317 1.0
-1.36305 -2.78485 7.42485 1.0
7.539175 -0.051925 -20.713001 0.0
5.21165 1.41365 -5.65035 0.0
4.681467 0.27695 -11.8828 0.0
3.98325 3.20725 10.7018 1.0
2.83865 0.60835 8.41275 2.0
-6.37065 0.99755 18.224751 1.0
-2.114677 4.518437 22.689379 1.0
5.26395 1.0846 -18.494699 0.0
-6.940675 0.30794 18.718344 1.0
8.1749 1.12695 -22.703199 0.0
-1.849 -3.6355 8.8302 1.0
-1.55085 4.19195 21.3358 1.0
-8.21545 0.99835 22.685749 1.0
6.709917 2.111783 -13.640617 0.0
3.3427 -0.73345 12.4919 2.0
-6.76975 -0.62085 17.670616 1.0
0.698857 -3.898316 21.472969 2.0
1.87855 -1.4524 7.7167 2.0
-4.176083 0.14175 12.667216 1.0
-7.225995 0.080532 19.304625 1.0
-5.735228 0.912521 16.675764 1.0
5.497163 1.921288 -3.7217 1.0
4.902935 2.791781 3.860273 1.0
-4.61215 -1.53245 12.95765 1.0
5.5722 1.72715 -13.03045 0.0
2.916025 -1.481425 5.0595 2.0
3.2768 3.911037 15.090775 1.0
-5.2955 2.722017 19.897884 1.0
5.88595 -1.00895 -8.115151 0.0
6.40025 2.19765 -18.141451 0.0
-6.2237 1.42445 18.566299 1.0
3.638274 -1.248779 9.343939 2.0
7.92115 1.11885 -23.19355 0.0
-2.932663 3.179675 17.0804 1.0
3.698079 -1.234436 3.290579 2.0
3.1059 2.87453 9.325745 1.0
3.04825 -1.40475 3.5135 2.0
0.97525 -2.84945 2.38615 1.0
5.283975 0.507075 -15.4709 0.0
7.61725 0.72135 -16.45615 0.0
3.58115 -1.51015 4.92945 2.0
-3.961925 2.754887 17.294937 1.0
3.87375 -1.34885 7.30795 2.0
-7.688234 0.715218 21.264233 1.0
6.353149 1.52865 -6.277383 0.0
-0.081617 -4.764217 8.502049 1.0
-7.856202 0.098026 21.484035 1.0
1.96465 -3.08655 17.210051 2.0
-7.180165 0.560807 19.727995 1.0
4.57115 -0.60725 -7.96205 0.0
-5.906347 -0.096055 16.076275 1.0
2.725666 -2.126496 14.082557 2.0
-3.42525 2.00035 14.66335 1.0
8.04745 1.64815 -19.577551 0.0
3.1209 -1.495317 5.342766 2.0
-1.20495 -3.6754 23.496101 2.0
7.7953 0.90375 -20.479099 0.0
-5.925357 1.94355 18.922489 1.0
6.00635 2.42315 1.99625 1.0
-3.908267 -3.692433 12.482316 1.0
-0.2589 2.20445 10.9102 1.0
6.065288 1.663763 -8.255149 0.0
0.95889 -0.29199 2.68475 1.0
-2.296394 4.261862 22.138428 1.0
1.45385 1.77945 5.70885 1.0
2.70645 -1.8862 -1.8828 1.0
-6.7177 -2.635367 16.259783 1.0
-5.860331 -1.919217 15.301223 1.0
-6.82225 -2.94815 15.78655 1.0
6.8971 0.1876 -4.97105 0.0
2.9568 -1.77445 15.432751 2.0
-2.953436 0.696264 11.305163 1.0
4.209 0.6911 -11.073549 0.0
6.743084 0.905133 -7.145933 0.0
0.1142 -1.6898 17.724651 2.0
-6.424333 1.6367 19.525051 1.0
-0.84845 -2.43075 5.75935 1.0
0.28261 -3.37449 19.291569 2.0
2.73705 -0.258817 -3.277517 1.0
7.54215 0.2293 -23.446499 0.0
6.83125 -0.35805 -16.19795 0.0
7.44405 1.10555 0.2728 1.0
-5.866322 -3.308907 14.639377 1.0
-4.68459 2.88868 19.10375 1.0
6.72655 3.085335 6.71955 1.0
5.90343 -0.12903 -4.88081 0.0
2.279964 -2.443857 14.084186 2.0
3.471928 -0.709561 11.727828 2.0
-3.297887 3.740575 19.721951 1.0
-6.816287 0.263687 18.314539 1.0
-7.330815 -0.67725 18.872301 1.0
6.11617 2.56555 4.09005 1.0
5.8608 1.6757 -6.4869 0.0
-2.891179 -4.692782 11.501271 1.0
3.43195 -2.09245 -2.43275 1.0
7.73995 0.17215 -17.54455 0.0
5.38615 -0.14145 -4.50535 0.0
3.096577 -1.722643 8.104871 2.0
6.885107 1.684907 -0.69445 1.0
7.41635 0.16415 -22.223249 0.0
-2.912775 -2.505125 10.142525 1.0
6.88635 0.27535 -3.5136 1.0
-2.50139 -3.9083 10.50581 1.0
5.493607 -0.920736 -8.10525 0.0
7.38395 0.22865 -16.779449 0.0
-0.320383 3.148884 14.668515 1.0
4.521688 2.116627 -1.096773 1.0
-6.226883 0.81465 17.572784 1.0
7.122 -0.102587 -14.117038 0.0
-1.5139 1.509717 10.507216 1.0
6.93445 -0.1718 -19.998001 0.0
5.721651 1.087583 -21.040449 0.0
5.13575 0.61435 -2.25755 1.0
-7.376551 0.135437 19.901524 1.0
2.520017 -3.180317 0.861683 1.0
-4.075619 -1.084144 12.0748 1.0
2.58125 -2.35855 16.82535 2.0
-3.01595 -1.24215 9.78035 1.0
3.09265 -1.58325 17.911751 2.0
-5.778484 -0.618583 15.622383 1.0
4.098 4.0958 14.589701 1.0
4.46935 0.28785 -12.240283 0.0
4.6714 1.9341 -2.6839 1.0
7.01205 2.49335 -15.16025 0.0
-3.437562 -3.480175 11.518488 1.0
7.50405 1.54985 2.12565 2.0
5.703663 -1.509162 -4.1287 0.0
5.93905 -0.4338 -13.6695 0.0
6.692388 -0.332327 -21.293606 0.0
4.36445 -0.23485 -8.730301 0.0
3.10605 -1.293354 15.923963 2.0
4.94345 0.27085 -0.86913 2.0
2.29847 1.45715 1.86379 1.0
4.52305 0.18085 -12.57575 0.0
5.74315 1.58675 -8.77745 0.0
0.581017 0.514417 4.312717 1.0
4.860375 0.514725 -13.656799 0.0
2.269038 3.182637 12.71405 1.0
5.48065 2.65999 1.73207 1.0
-4.42645 0.42185 13.18595 1.0
1.727793 2.640207 9.886179 1.0
6.772917 0.917983 -6.73485 0.0
2.689629 -4.441896 4.698479 1.0
-7.123905 -0.495935 18.509584 1.0
6.867 -0.6686 -15.304649 0.0
2.504578 -1.648164 7.280822 2.0
6.14555 -0.56795 -17.76845 0.0
7.8965 1.087 -18.986 0.0
1.501275 -4.3471 5.24995 1.0
2.82115 -2.60995 19.20785 2.0
6.2508 -0.160825 -19.901402 0.0
-7.506011 1.33117 22.541929 1.0
1.46115 0.508617 1.427884 1.0
0.502067 -4.13825 5.7015 1.0
-1.45675 -0.874306 7.070184 1.0
2.01015 -3.52045 2.18275 1.0
-7.2898 -2.10865 17.852451 1.0
-7.555344 -0.89557 19.49474 1.0
4.22465 3.58335 12.87155 1.0
7.10953 1.31579 -11.355009 0.0
2.757525 -1.989775 9.848875 2.0
6.32937 2.75937 6.12145 1.0
4.919384 1.95115 -3.12565 1.0
5.04415 -0.581817 -8.75855 0.0
7.11275 0.75805 -1.73395 1.0
-7.89675 1.44015 22.687149 1.0
-5.164883 1.552383 16.482517 1.0
5.097693 0.741464 -16.071594 0.0
8.00995 0.73535 -23.70945 0.0
6.859983 0.518 -6.1398 0.0
5.9195 -0.12045 -14.157551 0.0
6.73269 0.90635 -9.672069 0.0
1.20155 -3.18955 2.12925 1.0
5.109307 0.112436 -12.717821 0.0
4.0928 1.5181 -4.81825 0.0
3.0829 3.08735 11.07912 1.0
0.85345 -3.74055 4.34955 1.0
-6.841923 -0.902659 17.502396 1.0
5.258172 3.937072 12.072161 1.0
7.35835 1.99425 -20.03915 0.0
0.3138 -3.87181 21.488911 2.0
7.281942 0.281119 -14.721857 0.0
2.84663 -2.46691 18.711208 2.0
5.12755 2.8386 3.28745 1.0
-0.43535 -2.62195 5.03165 1.0
7.72575 1.31475 -16.40365 0.0
5.7288 3.66315 10.0623 1.0
-0.088675 -1.6946 4.072425 1.0
4.20815 -0.60145 5.44955 2.0
-3.34122 0.12094 11.08971 1.0
6.675905 2.317923 -23.249149 0.0
4.946084 1.10245 -14.495999 0.0
5.631675 0.4989 -20.508249 0.0
2.033183 -2.73635 0.672083 1.0
6.2288 -0.44985 -7.37585 0.0
1.914461 -2.753939 15.857673 2.0
6.37945 2.15385 -12.68605 0.0
3.78185 0.80025 -8.80145 0.0
6.89765 2.33415 5.48285 1.0
4.86125 0.42685 -13.19175 0.0
1.54595 -1.78935 0.78835 1.0
-0.0679 -1.74185 16.444199 2.0
-0.04545 1.42425 7.0769 1.0
3.32855 -2.43661 -1.64679 1.0
4.895293 -0.928264 -7.28845 0.0
-2.49045 -1.7353 8.826099 1.0
2.0671 4.899075 17.886074 1.0
3.28165 0.84715 4.79755 2.0
3.355683 0.788617 -8.09625 0.0
7.096375 2.85395 5.9474 1.0
-7.80715 1.00875 21.986851 1.0
2.37085 0.33485 -2.40705 1.0
7.17329 1.94517 -16.700031 0.0
2.89405 -3.883725 2.641125 1.0
0.053917 -2.761684 17.841749 2.0
2.3202 4.4302 17.1562 1.0
2.37865 -1.16685 -1.21115 1.0
1.23675 1.1892 3.6846 1.0
4.686707 2.867607 5.277522 1.0
2.27915 3.4219 13.7824 1.0
2.76031 -2.16145 16.489651 2.0
5.515 2.6474 0.69795 1.0
6.18625 -0.38985 -6.80285 0.0
-4.12639 -1.73103 12.33383 1.0
5.85185 0.07645 -17.255627 0.0
0.38225 2.20715 9.95225 1.0
-4.7593 0.97125 14.62005 1.0
0.116405 2.963513 13.511676 1.0
4.494666 3.130882 9.662444 1.0
5.096425 2.547075 0.755125 1.0
0.52085 1.08925 4.877317 1.0
4.2976 1.32175 -9.31205 0.0
3.1327 -1.86835 -2.316817 1.0
-3.18955 -1.02645 10.44285 1.0
-3.64675 2.41335 15.99295 1.0
-1.696675 -5.096075 10.136875 1.0
1.05825 -0.5005 2.3161 1.0
5.282675 1.702 -9.752675 0.0
3.80255 -1.18725 -4.49875 0.0
5.4858 1.7317 -10.907949 0.0
6.80635 2.65725 6.58215 1.0
6.03545 0.059083 -20.36735 0.0
4.48555 -0.84115 -0.483917 2.0
-6.54275 2.38355 21.751751 1.0
-3.81715 -3.30065 11.98735 1.0
1.65727 -4.68727 6.68305 1.0
3.10685 2.524783 4.94245 1.0
1.9161 -0.679325 -0.1257 1.0
1.48739 3.37165 14.490149 1.0
6.41875 1.45085 -5.97425 0.0
6.03245 0.22295 -23.55205 0.0
1.761525 -1.32625 0.29965 1.0
0.703675 2.247475 9.74675 1.0
0.87175 3.15525 14.13455 1.0
-5.379017 1.774483 17.448284 1.0
7.101025 1.932325 1.6987 1.0
-2.63775 -0.15525 9.57535 1.0
-1.01245 4.41355 21.188049 1.0
1.248117 -0.090383 2.13865 1.0
6.151434 -0.309892 -5.508542 0.0
5.55285 -1.59835 -4.69775 0.0
2.94415 -3.11585 0.35865 1.0
5.824783 -1.127783 -2.11485 1.0
2.49305 -4.01605 3.13 1.0
5.906939 3.249339 9.051427 1.0
-7.96925 1.72745 22.798849 1.0
0.1259 -1.24775 19.120201 2.0
-0.51605 4.358335 20.673065 1.0
3.64405 -0.744417 -4.96905 0.0
3.890775 -3.462588 1.32155 1.0
2.1238 -4.01425 3.30665 1.0
3.167193 -1.75625 10.932164 2.0
-2.24435 -2.46195 8.678 1.0
-7.615483 -0.55245 19.927252 1.0
5.29283 -0.50623 -9.69211 0.0
3.02755 -2.2034 17.726551 2.0
7.247383 -0.285317 -23.092451 0.0
4.678159 2.693486 2.499814 1.0
7.07165 -0.09996 -20.53194 0.0
5.89697 1.88721 -16.29071 0.0
1.693017 -2.301717 12.286516 2.0
3.830417 2.17535 1.063383 1.0
0.37665 -1.662017 14.698283 2.0
2.88773 -3.75223 2.08481 1.0
4.46785 0.7038 0.4522 2.0
6.466116 2.443084 3.127261 1.0
-3.884615 -1.694579 11.899209 1.0
-4.578983 0.039417 13.427383 1.0
1.11571 -3.38605 18.90859 2.0
2.59755 1.41385 0.54025 1.0
1.153367 -4.638933 6.284517 1.0
6.55805 2.22075 -13.00265 0.0
1.493721 -2.072893 11.692222 2.0
-0.31335 -2.79745 19.058451 2.0
4.513537 -0.311625 2.333275 2.0
-1.38455 3.93955 20.688749 1.0
1.369793 4.426479 18.145636 1.0
7.20585 -0.53695 -12.94115 0.0
3.17375 -0.0432 11.666451 2.0
5.88725 2.09985 -3.20755 1.0
1.6998 -2.564387 13.877042 2.0
-5.506043 2.958127 21.081573 1.0
0.52255 -2.896765 3.287836 1.0
4.911831 2.442906 0.333687 1.0
-2.13314 1.71925 12.07998 1.0
3.881184 -0.053167 -8.735766 0.0
4.5289 1.076625 -12.308925 0.0
2.520492 -2.332658 14.650634 2.0
-0.05175 -2.25095 17.178249 2.0
-3.484841 -0.899886 10.893131 1.0
1.718741 -2.08285 11.263923 2.0
2.681217 0.669017 10.580483 2.0
6.29285 -0.51685 -11.57355 0.0
3.55935 3.21015 11.18405 1.0
1.27615 4.35925 18.524075 1.0
1.914317 -3.354233 20.123217 2.0
-1.055396 -2.666704 21.130949 2.0
6.52485 2.26095 -19.917049 0.0
7.25825 2.47115 -23.359751 0.0
6.40565 -0.37565 -15.49995 0.0
7.280757 0.734721 -2.131028 1.0
5.8231 1.33675 -21.5476 0.0
6.319425 -0.49275 -16.259151 0.0
-0.31843 3.35892 15.716492 1.0
0.471217 1.269717 5.568616 1.0
-6.743716 1.108861 19.45645 1.0
7.59555 0.02535 -21.88455 0.0
5.11611 -0.55751 -9.114531 0.0
4.75455 3.60855 11.78465 1.0
2.79795 -1.424583 17.661684 2.0
1.90337 1.11229 1.48615 1.0
7.65425 0.13975 -16.969049 0.0
-4.11003 3.85605 21.462551 1.0
-2.92845 0.311617 10.649117 1.0
1.79155 -3.62905 2.76595 1.0
3.270974 -1.675517 9.660997 2.0
-3.3502 1.7642 14.06395 1.0
4.02035 -1.0784 2.76525 2.0
-2.860184 -3.867883 10.90005 1.0
0.705165 -4.063719 5.274327 1.0
5.62805 3.00795 7.59905 1.0
-1.9643 -0.03965 8.80615 1.0
2.87659 3.16077 11.72313 1.0
0.371683 -0.313217 4.100017 1.0
3.82673 0.97755 -8.46409 0.0
-7.561817 -1.272917 19.056633 1.0
5.77985 -1.30765 -7.20775 0.0
-0.501639 -4.938406 8.940939 1.0
-3.90328 1.292675 13.71239 1.0
3.2755 0.081833 -5.723767 0.0
0.257933 -3.56795 20.051867 2.0
-8.0882 0.6824 21.955601 1.0
-2.100536 3.541265 17.901421 1.0
-1.310759 -3.715813 24.282188 2.0
6.17555 2.07585 -15.43815 0.0
7.046158 -0.442714 -17.504402 0.0
3.28093 0.92675 -5.72887 0.0
1.351136 -0.867521 10.124536 2.0
6.47355 2.118075 -22.643475 0.0
1.709483 -2.426617 12.73405 2.0
-3.685125 -3.122616 11.700883 1.0
6.96385 0.95085 -11.76435 0.0
-0.83637 -3.05482 21.14155 2.0
3.13255 -2.69535 -0.82355 1.0
3.181575 -1.108988 14.126374 2.0
8.260217 1.303917 -23.848715 0.0
3.45685 -1.71525 11.59505 2.0
4.58225 -0.78515 -1.23325 2.0
7.7674 1.4656 -16.77195 0.0
-5.040838 1.44115 15.938513 1.0
7.1486 0.67713 -2.69675 1.0
4.097767 -3.351533 1.090817 1.0
4.27233 -0.87939 1.86625 2.0
4.20555 -3.00785 -0.32345 1.0
-7.3087 -1.4577 18.50275 1.0
0.7166 -4.5063 5.72695 1.0
-7.467779 -0.50715 19.501059 1.0
3.54855 0.37745 -8.38835 0.0
4.18425 0.97365 -10.59815 0.0
1.457017 -0.285583 16.732616 2.0
4.02295 -1.17595 -4.96605 0.0
6.95591 2.12779 -14.317289 0.0
3.542482 0.50511 -7.720326 0.0
8.12615 1.6639 -21.165649 0.0
1.16371 3.62045 15.924271 1.0
7.74675 1.60345 -16.19515 0.0
2.34045 -2.577117 16.314318 2.0
0.76865 3.57945 17.024851 1.0
-0.80245 -2.09725 20.175751 2.0
-3.16959 -3.66803 11.449831 1.0
5.743683 -0.087817 -19.867785 0.0
-2.708125 -4.871675 11.264812 1.0
-3.130083 -4.13255 11.645084 1.0
6.13965 1.6269 -10.098949 0.0
2.704717 -3.473717 1.354733 1.0
3.054325 -1.495763 15.324614 2.0
5.23915 1.69525 -9.31985 0.0
1.494839 3.653539 15.745396 1.0
3.514583 -3.946683 3.226783 1.0
-1.25975 -3.8525 7.93265 1.0
0.69005 -3.1475 17.863201 2.0
2.97855 -0.23635 -4.13345 1.0
2.53575 0.58805 13.18605 2.0
-2.32015 -1.19275 8.61665 1.0
7.16135 2.80915 5.34345 1.0
2.090396 2.465041 7.891504 1.0
4.088475 -0.3129 -7.697525 0.0
2.41095 0.99835 -1.05265 1.0
5.48525 -1.7664 -0.70155 1.0
5.42245 1.21465 -19.60865 0.0
6.42565 -0.3578 -15.1215 0.0
6.76365 0.22155 -10.02395 0.0
0.693938 4.297162 18.951912 1.0
3.6417 -0.5411 -5.52295 0.0
-1.21655 4.825783 22.146017 1.0
7.2478 -0.0369 -15.737801 0.0
-2.75725 -4.13615 11.230783 1.0
6.05765 -0.5392 -3.9288 0.0
0.094093 3.321507 15.10235 1.0
6.7066 1.12685 -10.76095 0.0
5.37375 -0.45945 -10.17085 0.0
-6.55437 -2.66423 15.90465 1.0
2.125717 0.496217 -1.278017 1.0
6.49539 -0.16597 -11.306109 0.0
-0.907231 -0.495588 6.473393 1.0
3.1163 -1.0586 2.14955 2.0
5.5701 2.58575 1.44975 1.0
-6.17743 -1.06433 16.26569 1.0
0.07975 -0.3048 4.740212 1.0
-5.294909 1.702638 17.087109 1.0
1.2649 -4.16145 4.864725 1.0
-7.59365 -0.68655 20.747549 1.0
5.7475 -1.323717 -5.26595 0.0
6.241884 -0.167283 -20.228817 0.0
1.25305 -2.58465 14.46235 2.0
-0.295767 2.287417 11.308567 1.0
5.476933 0.700983 -19.500433 0.0
6.781267 0.50045 -8.505401 0.0
5.73645 -0.29195 -4.57865 0.0
2.9647 -0.79235 16.637249 2.0
3.89605 -1.0917 -5.48285 0.0
2.70465 -2.78055 19.70505 2.0
7.283884 0.068617 -21.768717 0.0
6.48385 -0.332436 -18.943134 0.0
-6.38185 -3.00275 15.40265 1.0
-2.337783 -2.915683 9.235616 1.0
5.33195 4.00915 11.40475 1.0
4.130283 -0.481083 6.483117 2.0
-1.097679 2.344107 12.491708 1.0
-2.37395 1.76195 12.65815 1.0
1.15435 3.40105 14.72975 1.0
3.70335 2.499808 2.928583 1.0
-8.06635 0.41455 21.673849 1.0
-1.76235 0.79145 9.73935 1.0
2.4729 -2.4045 12.53905 2.0
2.314717 -3.458183 1.732783 1.0
-1.04125 2.222017 11.958917 1.0
-5.2419 3.3585 21.897549 1.0
3.31395 1.108017 -4.67805 1.0
-0.110819 -4.121858 6.521996 1.0
-2.70965 3.685504 18.884796 1.0
-4.153896 -4.269789 12.842566 1.0
3.299068 -1.665014 7.668723 2.0
7.854 1.2475 -22.144451 0.0
1.9595 1.4455 2.90925 1.0
3.30555 -1.34045 -3.88815 1.0
5.2158 -0.35365 -2.4544 1.0
-0.79725 4.18745 20.59305 1.0
6.21005 2.22455 1.03795 1.0
-6.35355 1.1588 18.48175 1.0
3.73665 -0.18605 9.90085 2.0
-2.142038 -4.493988 10.52235 1.0
-2.53205 -3.11255 9.668075 1.0
1.66855 4.19405 17.548651 1.0
3.85485 -1.23745 5.518383 2.0
3.95311 -1.50057 -4.30933 0.0
6.23665 -0.25795 -6.2121 0.0
1.11145 2.79985 12.29645 1.0
6.119623 3.108996 8.093877 1.0
-1.32128 2.92128 14.920421 1.0
3.53025 1.75275 -0.60315 1.0
-0.277683 1.65585 8.50825 1.0
-0.87735 1.62705 9.30595 1.0
6.504467 2.6489 5.0807 1.0
-0.60235 2.20515 11.38335 1.0
-1.269983 -4.474583 9.315867 1.0
3.297893 2.863036 8.739522 1.0
-0.786 -1.7012 5.45225 1.0
-2.57415 -4.3457 11.0962 1.0
-2.041283 -5.05615 10.517384 1.0
4.703888 0.10355 0.718475 2.0
-2.1943 -4.89015 10.8015 1.0
-2.13815 -3.15735 9.27815 1.0
-0.30961 -3.47541 20.718288 2.0
1.914916 2.305972 7.250139 1.0
5.83085 -0.42335 -16.356251 0.0
-2.15595 1.95665 12.81395 1.0
6.695151 -0.30104 -23.31049 0.0
5.115536 1.503493 -13.524478 0.0
-3.02165 -0.50725 9.908 1.0
7.4827 0.14975 -23.785851 0.0
7.0599 1.43725 -1.1241 1.0
-0.72105 1.35935 8.77885 1.0
2.70455 3.352966 13.297 1.0
4.66685 1.39395 -11.35905 0.0
-0.27885 -3.81455 21.77655 2.0
5.291793 -1.869364 -4.083093 0.0
3.83895 -1.20275 6.52275 2.0
1.967879 -2.986107 17.856136 2.0
2.108637 4.09783 16.676075 1.0
7.324483 1.922883 3.358117 1.0
-1.773683 2.376333 13.470317 1.0
5.19405 2.20775 -1.63915 1.0
2.89575 2.26105 4.10055 1.0
6.116937 3.258331 8.709863 1.0
3.6952 1.34485 -4.7332 1.0
-4.505064 -2.929607 13.099021 1.0
5.41685 -2.28835 -1.34685 1.0
4.61745 -0.63555 -0.02795 2.0
-3.272164 2.46343 15.542911 1.0
7.09219 -0.46823 -16.30349 0.0
2.740775 -2.139887 15.088326 2.0
6.51415 1.5438 -11.45735 0.0
4.08785 2.25675 0.883821 1.0
3.285636 -1.288579 12.876464 2.0
-0.6631 2.03645 10.7888 1.0
6.10765 1.931 -13.9297 0.0
-2.64095 1.4359 12.1699 1.0
-2.882767 3.411583 17.895733 1.0
4.723177 -0.289014 0.09185 2.0
-2.300783 3.764317 19.323683 1.0
4.69317 1.53253 -8.887389 0.0
1.292817 1.633683 5.45565 1.0
3.23025 3.58775 14.00145 1.0
1.272117 2.19805 8.500382 1.0
6.308817 2.14045 -17.64805 0.0
0.7387 -2.7624 16.015751 2.0
-0.57915 1.36755 8.46965 1.0
4.427617 0.891117 -12.027583 0.0
-0.285613 4.260133 20.097572 1.0
4.477383 -2.21245 -3.263683 0.0
-6.177 -2.2273 15.6625 1.0
-4.642907 3.640564 21.350794 1.0
7.319883 0.108117 -16.143484 0.0
0.856117 2.994817 13.103517 1.0
6.058875 -0.107425 -17.9326 0.0
3.64155 -0.34745 -5.98485 0.0
6.89269 0.69339 -9.87061 0.0
-0.55139 1.08877 7.65111 1.0
-1.479025 -2.093475 6.85965 1.0
0.79535 -3.97055 21.80575 2.0
3.544666 -1.301533 10.330017 2.0
3.42795 1.76695 -0.12775 1.0
0.692161 3.160961 13.892562 1.0
-3.16503 -0.29355 10.46183 1.0
2.1657 -4.63365 5.24985 1.0
0.639017 -0.89725 18.04805 2.0
2.165475 -1.632125 8.290976 2.0
5.834628 0.127361 -23.327141 0.0
5.089117 1.715417 -5.69075 0.0
1.115825 -2.281 13.466738 2.0
0.84455 -4.87095 7.61855 1.0
-5.1384 -2.565 14.02205 1.0
0.14005 5.00095 20.585951 1.0
-7.3819 -2.28095 17.152149 1.0
6.71455 1.71725 -1.521617 1.0
-5.889771 3.107261 21.914293 1.0
7.768 0.469975 -20.511875 0.0
2.92099 -1.94855 10.28603 2.0
7.39865 1.55595 -17.830549 0.0
2.94075 -2.91245 -0.16595 1.0
-1.36335 1.77641 11.07875 1.0
6.56105 2.42775 -17.307049 0.0
-1.921983 -3.284517 8.843983 1.0
2.112037 2.536087 8.517312 1.0
2.934867 -1.108183 -2.707683 1.0
2.97985 -1.43495 -2.73005 1.0
0.742283 -2.321183 14.651517 2.0
3.963595 -0.076714 6.957905 2.0
1.488525 -0.684225 1.1001 1.0
5.70265 -0.292083 -16.949284 0.0
-8.20395 0.57895 22.23295 1.0
3.934864 -0.454679 -7.060822 0.0
5.88085 0.309412 -22.114851 0.0
3.517875 -3.9124 3.6991 1.0
5.70255 -0.0495 -24.222149 0.0
3.76185 -1.50725 3.41375 2.0
