# .PCD v0.7 - Point Cloud Data file format
VERSION 0.7
FIELDS x y z label
SIZE 4 4 4 4
TYPE F F F U
COUNT 1 1 1 1
WIDTH 1573
HEIGHT 1
VIEWPOINT 0 0 0 1 0 0 0
POINTS 1573
DATA ascii
-6.16415 5.6599 11.0658 2.0
-3.29725 -3.55135 13.5604 1.0
5.36035 -7.8129 12.931 1.0
-4.36905 5.3962 -6.6375 0.0
2.705764 -5.712836 10.880315 1.0
2.46235 3.2175 -3.7161 1.0
-5.72335 5.55975 20.466999 2.0
-0.289083 0.14635 -1.097683 1.0
-2.53515 6.9542 8.1376 2.0
-7.13325 7.0125 26.306101 2.0
5.71535 -2.28975 1.67975 1.0
8.116471 -7.919579 11.496472 1.0
3.4666 1.9592 -2.48195 1.0
-6.84595 3.108 -10.3381 1.0
-8.60445 5.752 -28.532 0.0
-8.904508 5.314214 -27.059872 0.0
-7.07897 2.32448 -8.68738 1.0
1.26917 -3.36212 5.46512 1.0
6.05135 -3.9902 4.2234 1.0
7.70395 -9.4313 19.610399 1.0
4.123829 -3.249947 4.318605 1.0
-4.54695 -1.9006 11.0221 1.0
-4.2859 7.98875 7.5772 2.0
-5.675025 6.51905 -5.30265 0.0
4.704165 -7.891438 19.751394 1.0
-6.20265 6.0373 -4.7697 0.0
-5.916725 3.530875 -20.713799 0.0
-0.71015 -5.4148 15.909901 1.0
-0.39535 -4.4012 9.3547 1.0
-2.09035 -1.96205 3.7493 1.0
8.88755 -8.623751 13.11525 1.0
-6.3804 5.3693 -5.49635 0.0
1.89297 -0.50168 0.24862 1.0
9.619101 -8.710199 13.45015 1.0
0.682393 -6.292829 13.503958 1.0
-1.893268 -4.499718 14.914164 1.0
-3.872475 4.876 -1.707275 0.0
-7.32805 1.3549 -2.70705 1.0
-4.891995 8.059382 7.894 2.0
3.9 2.0423 -1.96245 1.0
5.693617 -3.56365 3.722917 1.0
-0.76235 -0.83275 0.3501 1.0
-3.67785 0.46595 -1.8499 1.0
-3.58585 6.0773 0.4485 0.0
-5.896893 5.091714 3.070986 2.0
-6.361961 8.531199 20.0674 2.0
-7.29275 7.2902 27.403999 2.0
-6.32223 6.29406 3.92262 2.0
-1.24805 -5.054166 15.848701 1.0
-7.42653 4.14124 -17.534721 0.0
-3.3574 6.2608 2.076125 2.0
-2.38155 2.1697 -5.9541 1.0
-6.449 6.5099 21.55545 2.0
2.707784 -6.8398 13.101245 1.0
-5.567689 5.48822 -16.2899 0.0
-5.903425 9.28965 20.52425 2.0
-5.14225 5.96965 22.44215 2.0
-2.30669 -0.74442 1.49488 1.0
-1.092407 -2.660514 5.117028 1.0
-3.6906 1.0798 -3.91465 1.0
-1.300543 -4.901858 15.317572 1.0
-4.259616 7.813967 6.122267 2.0
7.84405 -5.5247 4.8382 1.0
-1.3249 3.517871 -7.067093 1.0
7.10585 -6.1749 8.0756 1.0
-5.99995 3.9271 -6.1431 0.0
-6.1083 3.884983 -23.507942 0.0
-4.492875 -0.852275 5.483375 1.0
-5.26065 0.6064 2.4964 1.0
-2.94895 4.8122 2.52155 2.0
2.07205 -6.3363 18.555401 1.0
-4.70165 8.154425 8.66475 2.0
4.495479 -0.733114 0.497171 1.0
-4.1107 7.0777 1.60055 0.0
1.44581 -6.32368 17.29092 1.0
-5.56865 0.8985 4.1414 1.0
-6.87605 1.6066 3.4093 1.0
-2.68085 6.912834 6.3234 2.0
-4.50755 1.12825 -3.12925 1.0
2.101633 -3.7785 6.2449 1.0
1.698108 0.713392 -1.496444 1.0
-5.55215 4.8369 3.9952 2.0
-6.50215 6.293767 15.845 2.0
2.71045 -3.0101 4.1595 1.0
-4.17755 6.1553 19.340799 2.0
-7.83997 4.29552 -21.485739 0.0
-5.22885 -1.912967 10.702466 1.0
-2.9461 1.35055 -4.28245 1.0
-5.72185 5.837911 -13.309811 0.0
7.298174 -7.891104 12.29495 1.0
-5.09785 4.8289 10.8766 2.0
-4.287225 4.68045 -4.52325 0.0
-6.32075 6.8287 25.64184 2.0
-8.364525 6.348525 -25.14695 0.0
-5.843717 6.269067 -10.0341 0.0
-5.52005 4.8614 9.0874 2.0
-6.460417 7.480967 12.931434 2.0
-4.53795 6.069 -7.9998 0.0
-5.08165 9.040713 15.720099 2.0
-5.16445 4.6365 4.2501 2.0
-4.547628 4.330555 -12.680478 0.0
-7.706986 1.67284 -0.079275 1.0
-0.75655 -0.2252 -0.4196 1.0
-4.48884 5.32727 -13.302661 1.0
-7.98865 5.3959 -24.3346 0.0
1.87875 -3.1887 5.0275 1.0
-7.3452 3.1375 -22.8615 0.0
-3.696517 4.6541 0.222033 0.0
-2.37765 -2.364233 6.492367 1.0
-7.12815 5.135675 -16.48885 0.0
-6.873128 8.296115 23.486835 2.0
2.40155 -7.5282 16.4589 1.0
-6.5583 6.901569 18.12788 2.0
-3.758317 -3.1403 13.020066 1.0
-5.02045 8.416799 10.1742 2.0
0.491536 -6.073443 17.075014 1.0
8.363899 -8.794001 14.8284 1.0
-5.8702 0.722233 4.495467 1.0
8.80225 -7.9803 10.7345 1.0
-6.41045 5.6824 -3.036 0.0
-1.78435 -0.3824 0.0596 1.0
-7.01765 3.1138 -28.181 0.0
-8.68615 1.5992 -2.8755 1.0
2.103112 -7.2808 14.903831 1.0
-6.268816 3.504033 -19.7246 0.0
-6.36195 3.2869 -10.3697 1.0
-5.670011 5.52288 -16.883099 0.0
-1.10265 -2.339316 4.268633 1.0
-6.272901 5.683463 5.327737 2.0
-3.87635 5.332875 -2.945775 0.0
-6.16205 5.857 -26.253599 0.0
-7.29357 7.70336 -22.89414 0.0
-5.89325 5.525722 16.107788 2.0
-6.516 3.523275 -14.443325 1.0
6.10943 -8.70364 14.924919 1.0
-3.57315 4.5314 -11.2989 1.0
-6.73445 6.5833 22.7442 2.0
-5.3542 8.572401 13.11345 2.0
9.145325 -9.334349 14.947201 1.0
-5.92387 0.8622 2.09814 1.0
-8.02265 1.595 -4.4763 1.0
-6.54299 4.70532 -8.53226 0.0
-7.27465 3.3934 -25.783199 0.0
-7.09275 6.96985 25.32095 2.0
7.0174 -4.6779 4.11925 1.0
3.110425 -4.686225 7.901184 1.0
2.285916 1.774367 -2.435444 1.0
-1.50085 4.3229 -8.102949 1.0
-3.4527 3.280137 -9.093187 1.0
-3.21465 5.3878 1.8121 0.0
-6.6773 5.6671 -18.670551 0.0
-5.65055 2.4428 -7.5349 1.0
-7.179017 3.179267 -21.677299 0.0
3.862175 -6.98045 13.263901 1.0
-0.097675 3.4893 -5.94435 1.0
-4.08641 5.90814 -3.90492 0.0
-8.68135 1.4501 -4.6688 1.0
-5.3445 4.67785 -17.479851 0.0
0.71685 2.236733 -3.937634 1.0
-5.071479 5.182165 16.096422 2.0
-5.497217 1.125467 -3.467417 1.0
-2.80995 7.551 9.9612 2.0
9.27385 -9.1383 13.877 1.0
-6.032379 4.309057 -6.712771 0.0
2.6861 -6.62815 18.698601 1.0
5.15195 -3.03505 3.1244 1.0
0.76345 3.967 -5.5064 1.0
-8.39785 1.8716 -6.5375 1.0
-8.261875 6.496375 -24.488674 0.0
-5.75745 1.59265 -5.51855 1.0
-6.158878 6.519843 0.269214 0.0
-2.21275 0.7476 -2.765 1.0
-7.105543 1.683047 -6.080834 1.0
-3.7086 6.522333 0.964517 0.0
-2.832317 3.9026 -8.970566 1.0
-5.9528 7.37585 7.69025 2.0
3.497216 0.5857 -0.8265 1.0
3.52645 -3.5822 4.9646 1.0
3.706434 -2.682647 3.510726 1.0
7.361425 -8.840475 14.758551 1.0
-5.36125 3.3909 -14.0397 0.0
-6.87635 3.41785 -24.90205 0.0
5.03815 -3.1964 3.6851 1.0
-5.716883 5.503117 17.491919 2.0
-7.501851 1.889618 -6.718082 1.0
-7.742188 4.292838 -20.311749 0.0
-4.51835 1.489825 -4.3219 1.0
-0.24965 -2.209 2.7932 1.0
-3.82365 6.1411 9.088699 2.0
-2.5781 0.00295 -0.3676 1.0
-6.34475 5.4765 -4.578 0.0
-3.121493 -2.732014 9.248229 1.0
-6.1094 6.5279 24.34565 2.0
7.35645 -8.6477 13.7768 1.0
5.503686 -4.631363 5.951046 1.0
-4.69675 2.32716 -9.10402 1.0
-3.9457 1.6196 -6.181 1.0
-5.080883 0.1057 3.4885 1.0
-9.164284 4.037 -27.6278 0.0
0.89803 -4.28352 6.91518 1.0
-6.07729 7.701899 10.690461 2.0
0.53555 -3.23085 5.128 1.0
7.69715 -6.494649 7.48182 1.0
-6.490781 9.313766 -22.683773 0.0
-3.689067 6.12055 -0.524383 0.0
-6.699753 1.369762 -1.913941 1.0
-4.476883 0.222317 0.253917 1.0
1.495925 -0.056413 -0.507025 1.0
-1.091463 -4.526174 11.492225 1.0
-6.744661 8.911433 23.730978 2.0
-2.905113 -3.709162 12.725975 1.0
8.35469 -7.61194 9.30518 1.0
8.84145 -7.8632 8.5904 1.0
-8.091383 3.944767 -21.174633 0.0
-3.972617 6.258067 14.855801 2.0
-6.68555 7.69996 -23.646479 0.0
-7.272525 5.0947 -18.0993 0.0
3.91245 -4.4251 6.4443 1.0
5.361783 -1.043667 0.3214 1.0
-3.46595 9.0184 13.684401 2.0
5.895896 -6.13224 8.909555 1.0
-3.9625 2.7235 -9.606951 1.0
-6.706875 6.861825 26.540323 2.0
-6.912683 3.453167 -17.078533 0.0
-5.697551 7.924454 9.48536 2.0
-3.72109 -2.86012 11.27286 1.0
-6.109735 5.095585 -26.898165 0.0
-3.663064 5.502543 10.535501 2.0
7.349775 -5.88585 5.92835 1.0
-8.34065 3.853133 -26.263733 0.0
-3.529825 1.8642 -5.6845 1.0
-4.76955 6.2062 -13.1608 0.0
-4.703378 6.690443 -4.112214 0.0
6.693 -5.543 6.67869 1.0
4.098425 -3.917125 5.705025 1.0
-0.05795 -5.8438 15.67025 1.0
-5.9404 6.17215 -9.093651 0.0
-5.70585 5.5577 20.947901 2.0
-4.36895 6.1054 -5.01875 0.0
4.44445 -6.7882 12.08395 1.0
-6.73365 9.3268 24.080833 2.0
-6.172025 6.42545 22.089699 2.0
-0.69025 1.8047 -4.1557 1.0
-5.327668 1.692218 -4.703345 1.0
-2.267192 4.278058 -8.918758 1.0
-2.871039 -4.033277 14.333899 1.0
-3.48065 7.712433 7.428667 2.0
-1.81235 1.0013 -2.9647 1.0
-6.104575 5.453125 10.075624 2.0
-3.05895 4.5289 1.9877 2.0
8.48909 -9.14982 18.148239 1.0
-9.019251 4.9228 -26.129051 0.0
5.905868 -7.264512 11.503419 1.0
-3.11437 4.71494 -10.682599 1.0
5.271429 -6.157242 9.705158 1.0
-4.9647 5.77705 20.701599 2.0
-6.71765 6.9394 19.88485 2.0
5.74621 -8.23804 20.21056 1.0
-7.709967 2.782233 -10.246551 1.0
-6.88075 2.9957 -27.579 0.0
-0.499163 -2.5124 4.098988 1.0
-4.54655 5.1017 14.1616 2.0
-2.88677 3.26754 -8.3206 1.0
6.099272 -6.723689 9.931467 1.0
-6.71645 5.696333 -28.493065 0.0
5.23085 -8.1949 15.2163 1.0
-6.12335 5.305934 7.098 2.0
-5.9052 8.24445 12.513075 2.0
-0.28745 -3.5153 6.5145 1.0
-6.70991 5.87166 -28.040882 0.0
-8.03995 4.18725 -23.513649 0.0
-6.2747 5.517 -20.146225 0.0
-3.46475 4.9169 1.3281 0.0
-7.82375 6.6198 -24.939501 0.0
2.337875 0.63775 -1.1342 1.0
-6.468458 6.302839 14.67468 2.0
-9.508117 3.642067 -28.512733 0.0
-7.3412 7.91355 -22.24855 0.0
-2.508771 -0.251071 0.324964 1.0
-5.94575 7.161367 5.5042 2.0
4.314516 -3.072333 3.4949 1.0
-6.31923 2.50406 -8.86818 1.0
-6.121783 5.055567 -0.0437 0.0
-5.1112 2.225375 -6.89985 1.0
-7.2977 1.36805 -3.68765 1.0
0.895061 0.968544 -2.271066 1.0
-5.89495 6.1412 25.039301 2.0
-1.2716 -1.035325 1.286925 1.0
-8.49472 3.6849 -27.269358 0.0
-1.454036 -3.842414 9.3045 1.0
-6.489845 2.279247 -7.890042 1.0
3.692317 -2.37035 2.966567 1.0
-2.306994 -3.716267 10.896845 1.0
-2.70865 5.719166 -10.926533 1.0
-4.73465 6.3216 22.2211 2.0
-4.60645 4.5085 -7.7154 0.0
-5.4183 7.62615 5.36875 2.0
-4.10685 7.4811 4.288933 2.0
0.96125 3.4166 -4.8513 1.0
3.912483 -8.472734 16.741432 1.0
-7.123575 5.812675 -24.026524 0.0
-8.123438 3.884365 -25.113899 0.0
-1.7033 -1.8857 3.23055 1.0
6.923395 -4.462746 3.503254 1.0
-5.98321 7.17458 6.07198 2.0
4.907625 -2.3349 2.430025 1.0
-6.486281 7.50908 16.856886 2.0
4.9091 -0.27615 -0.5585 1.0
-6.23255 0.95085 3.322 1.0
-6.678517 8.29566 21.677927 2.0
-4.29885 8.4363 10.432751 2.0
-2.15645 -2.7665 7.6132 1.0
8.50335 -7.309937 8.519136 1.0
-5.72085 5.556633 18.0175 2.0
0.97515 -2.6669 3.782 1.0
-3.43845 7.1748 4.8529 2.0
2.695702 -7.355241 14.682926 1.0
1.284224 1.921496 -3.255722 1.0
-1.111783 -5.1036 14.9285 1.0
-6.508136 9.092471 23.086573 2.0
5.83745 -3.3582 3.2115 1.0
-7.91373 6.47702 -23.30022 0.0
-5.291657 5.26275 16.759672 2.0
-6.9073 3.376 -11.704113 1.0
-4.56355 4.17835 -3.05275 0.0
-5.81505 -0.7598 8.6156 1.0
-6.67495 6.47715 11.704201 2.0
-3.02575 6.3121 3.68645 2.0
7.302198 -9.069882 15.734341 1.0
-5.534384 0.504433 3.47965 1.0
-3.09065 6.078367 2.922067 2.0
-2.43085 -1.6185 3.6852 1.0
0.12109 -2.32642 3.274553 1.0
-2.489221 -2.057986 5.108399 1.0
2.00395 -7.1437 16.767 1.0
-9.43485 4.3746 -26.5632 0.0
-5.82645 0.507 5.07935 1.0
-6.305894 5.674061 -15.097569 0.0
-3.297697 7.89096 8.503207 2.0
-1.709736 -4.4954 12.312693 1.0
0.708805 1.697017 -3.304411 1.0
-3.70559 3.09976 -9.479579 1.0
-2.286667 2.6866 -6.513267 1.0
-5.139 5.484375 -11.907475 0.0
-6.945393 5.442814 -24.301817 0.0
-6.445 6.07285 8.4036 2.0
-4.54145 4.3942 -13.421 0.0
-3.502864 -1.273671 4.672457 1.0
-5.96915 3.195 -14.2931 1.0
-6.04755 1.6042 -4.7797 1.0
-4.884325 2.7392 -9.5264 1.0
-8.091217 1.5837 -6.089433 1.0
-5.49115 4.9258 12.5774 2.0
-1.090931 4.669181 -8.333075 1.0
5.505828 -7.670611 12.477556 1.0
-5.35355 8.999 16.7215 2.0
-5.467117 9.246166 18.709799 2.0
-5.083962 -1.482463 9.144162 1.0
-2.502837 -2.898162 8.505899 1.0
-3.2658 8.186 10.0648 2.0
-5.748316 4.278467 -21.261534 0.0
-5.92945 6.494 -1.687467 0.0
-3.920417 1.7258 -5.124967 1.0
-5.445983 3.901145 -17.50079 0.0
-3.09065 1.5158 -4.70365 1.0
-4.81145 4.6022 -14.7136 0.0
-6.1175 6.24965 -3.09685 0.0
-9.139 5.27315 -25.311501 0.0
-7.077017 3.512133 -23.074102 0.0
-6.4636 6.907342 8.303058 2.0
-3.736117 8.619267 11.351768 2.0
-6.40045 4.7684 -23.801399 0.0
-0.103063 -4.8826 10.928839 1.0
1.892317 -6.542867 18.136 1.0
-5.23365 0.2171 6.2696 1.0
-3.87263 -0.88556 3.3131 1.0
-2.12841 1.7006 -4.49547 1.0
-3.59405 2.4897 -7.3315 1.0
-6.50995 5.2357 -2.0054 0.0
-7.15565 6.9961 -23.354 0.0
-1.107633 5.075483 -8.926284 1.0
1.84085 3.1409 -4.4003 1.0
-7.89565 3.3398 -11.767 1.0
-7.65665 5.0359 -19.7827 0.0
-6.753384 5.699434 -22.420935 0.0
-6.46734 7.2781 11.721769 2.0
-5.65675 6.5026 23.009701 2.0
-5.15265 3.849967 -14.910867 0.0
-7.3127 3.262125 -26.909725 0.0
1.33375 -5.9877 18.699499 1.0
7.685826 -6.109694 6.299417 1.0
-7.42585 1.3787 -1.6129 1.0
6.297675 -9.319401 19.112823 1.0
2.437417 -5.390367 10.2413 1.0
-5.32235 9.120167 17.4876 2.0
7.885225 -8.0503 12.098675 1.0
0.13705 1.0245 -2.5804 1.0
-3.27105 -2.080533 6.722533 1.0
-7.49765 6.04376 -27.442661 0.0
-6.833417 4.549233 -11.708568 0.0
6.297925 -5.681175 7.141625 1.0
-3.38015 5.69335 12.53675 2.0
4.532605 -5.448736 8.737637 1.0
-8.714483 4.0421 -26.655733 0.0
5.663375 -7.7567 20.280325 1.0
2.71002 -7.660836 15.482965 1.0
-6.25805 8.506901 18.3221 2.0
-3.94375 9.635526 15.869326 2.0
-3.92395 5.3426 8.4491 2.0
-4.662384 -1.4534 7.928134 1.0
-5.900784 4.701733 -1.872067 0.0
-0.7159 -4.1044 8.70915 1.0
-0.864807 -5.269643 14.250072 1.0
-4.87895 2.0027 -5.94845 1.0
-5.93685 4.4261 -6.2253 0.0
-8.6808 1.475975 -5.134825 1.0
0.18855 -5.4213 11.5564 1.0
-4.85925 4.4801 -8.9248 0.0
2.4935 -0.991 1.052 1.0
-7.32465 6.57325 -25.83235 0.0
6.740017 -4.828033 4.953701 1.0
6.278378 -9.1825 18.252831 1.0
-0.094307 2.1139 -4.323171 1.0
-5.5526 -1.2469 8.70755 1.0
-6.15865 6.0031 -16.664 0.0
4.68875 -4.485754 6.305361 1.0
4.49353 -4.721814 7.087586 1.0
-5.49719 2.48754 -8.71412 1.0
-3.41135 5.304 0.856067 0.0
-3.27085 6.0389 -11.7712 1.0
3.51645 -1.99525 2.42095 1.0
2.502825 -3.141262 4.8505 1.0
-5.3448 9.926067 20.66655 2.0
-5.0204 5.28565 -11.07535 0.0
-7.305225 6.7102 -25.280399 0.0
-1.38095 -1.2433 0.7823 1.0
2.3424 -1.75275 1.95055 1.0
-7.305992 5.073686 -17.285273 0.0
-3.632583 8.779301 12.4672 2.0
-6.6684 3.70305 -27.305082 0.0
3.093025 -2.265925 2.937275 1.0
-6.260317 3.2543 -23.897833 0.0
-6.60845 6.0761 7.7545 2.0
2.707693 -6.069986 11.289443 1.0
-5.28225 4.6558 3.3063 2.0
-4.901767 0.256442 0.901225 1.0
-4.24135 6.9711 0.6556 0.0
-3.306 5.73495 13.317801 2.0
3.88527 -7.71663 19.102381 1.0
7.096429 -9.304151 17.292265 1.0
-3.98615 -0.5551 1.1966 1.0
1.08795 -2.9628 4.6779 1.0
-7.64115 4.3193 -19.24815 0.0
-7.512579 5.264699 -21.872543 0.0
-5.49948 -0.54582 7.862401 1.0
-3.765417 5.524666 -1.952233 0.0
7.15155 -9.5062 18.194 1.0
-4.039134 6.655783 9.905 2.0
-4.49995 2.09975 -8.083674 1.0
-6.1385 8.30505 16.343876 2.0
-1.093894 0.492767 -1.936433 1.0
-1.10265 -3.2182 6.17395 1.0
0.29477 -3.86108 7.52292 1.0
3.28685 -4.323357 7.125062 1.0
-7.2762 1.34975 1.72925 1.0
0.491975 2.69425 -4.6682 1.0
-5.79755 1.4892 -2.9758 1.0
8.714149 -9.050222 15.700343 1.0
-6.58241 7.08828 21.9156 2.0
-5.83935 5.9595 22.860701 2.0
-0.65935 -3.666633 7.339967 1.0
-0.785817 -5.1696 13.529099 1.0
-6.490316 5.521517 -8.325408 0.0
-1.504983 -4.1172 10.911584 1.0
2.68056 -3.54951 5.6621 1.0
-6.508561 2.9209 -10.084866 1.0
8.110031 -6.893619 7.490191 1.0
9.128305 -8.837533 14.344456 1.0
-4.48695 -0.45995 2.696425 1.0
1.705669 -6.084089 12.299312 1.0
4.73 -7.8577 14.524415 1.0
-2.34135 5.1112 -10.2528 1.0
-3.12725 -1.4407 3.0795 1.0
-4.24635 4.4937 -5.5218 0.0
-5.494717 4.4249 -2.6779 0.0
-7.93405 5.658333 -23.491066 0.0
5.73965 -1.90485 0.7521 1.0
-3.518966 -1.692062 6.305346 1.0
-5.17835 6.3419 23.406099 2.0
-6.62975 5.8833 12.6617 2.0
-5.471716 7.148266 0.465567 0.0
-5.40405 6.515 -6.3921 0.0
-7.116172 5.315023 -19.101334 0.0
-4.9367 5.12595 -10.4503 0.0
-8.42295 5.1774 -24.1908 0.0
-5.64107 6.5256 24.102421 2.0
3.10307 2.230925 -2.552105 1.0
4.524238 -7.48785 19.876263 1.0
-4.133308 -2.760133 12.230451 1.0
2.699796 -7.686235 17.490963 1.0
3.79975 -8.6082 17.7647 1.0
-7.521869 1.727827 -6.268246 1.0
-4.15535 -0.371933 2.303067 1.0
5.286397 -6.911077 10.890477 1.0
-6.0681 8.8825 18.890999 2.0
-1.280417 2.118783 -4.913283 1.0
-5.703117 7.486134 6.504567 2.0
-6.484016 5.655533 -20.735567 0.0
-5.086 6.7504 -4.66245 0.0
7.904125 -9.105101 15.169351 1.0
-6.06343 5.69404 -18.0746 0.0
-4.29925 9.3603 17.4121 2.0
-6.356133 6.655583 22.496332 2.0
-5.87185 1.37584 -3.85082 1.0
-0.66785 4.6406 -7.7939 1.0
-5.59755 5.3436 18.9867 2.0
-5.69275 0.5637 0.4682 1.0
-8.21475 1.4494 -1.5214 1.0
-3.79095 5.8603 14.65735 2.0
-2.37245 0.8604 -3.7264 1.0
-5.08785 8.32 9.1041 2.0
1.2953 -4.641 7.66635 1.0
-5.08225 5.3713 17.7852 2.0
-3.80775 4.1378 -0.8328 0.0
6.114619 -8.863199 15.888807 1.0
-5.60805 8.2721 11.6111 2.0
-4.9286 0.04685 2.5905 1.0
-6.14955 3.558725 -21.681799 0.0
-0.85485 -1.2313 0.9825 1.0
-2.32907 4.52041 -9.493671 1.0
-5.14625 4.9302 -15.0568 0.0
0.502007 -5.896343 17.520758 1.0
-5.88915 8.6118 15.3847 2.0
-5.93875 0.83824 2.87906 1.0
-6.57015 1.414825 3.11415 1.0
-5.30715 4.5124 0.157 0.0
-8.045 4.882675 -22.0506 0.0
-4.30295 8.2813 9.6422 2.0
-5.47915 0.53345 2.102533 1.0
-6.276384 5.82435 -12.741849 0.0
-6.53365 4.33206 -26.916361 0.0
-2.46851 -1.45182 3.1386 1.0
-6.93835 8.11655 26.1052 2.0
1.892011 -7.089089 14.50915 1.0
-4.42505 5.888667 -6.316367 0.0
6.63975 -3.0071 2.0968 1.0
5.721 -5.2501 6.928051 1.0
0.50825 -3.6518 6.351067 1.0
-3.515225 5.699887 14.05845 2.0
-2.60875 -4.2192 15.1019 1.0
-6.517675 5.56145 -14.50055 0.0
-3.304478 -0.333243 0.8887 1.0
-5.075516 5.7119 -10.083866 0.0
-8.649007 5.694086 -24.728388 0.0
-7.124873 3.496133 -18.894566 0.0
-4.10165 -0.708437 3.738687 1.0
0.902279 -5.488043 11.089 1.0
-7.003 7.329 28.251751 2.0
-4.34135 5.2307 15.2192 2.0
4.37965 -8.8174 18.491199 1.0
5.30175 -5.526292 8.078569 1.0
0.299383 -5.867716 12.6995 1.0
7.515728 -5.692036 5.104064 1.0
-3.02675 -1.6213 3.914 1.0
-2.71323 1.72004 -4.915 1.0
-2.51275 -2.0691 4.515833 1.0
-6.105383 3.298883 -13.475801 1.0
5.692968 -8.934178 17.273077 1.0
3.91455 -7.023459 12.68976 1.0
-1.370283 -0.084267 -1.281567 1.0
-5.696796 -0.0937 7.095985 1.0
-0.61515 -2.4565 3.4757 1.0
6.53875 -9.467464 18.661373 1.0
-6.05045 5.151133 -20.973234 0.0
4.72105 -8.472767 16.154467 1.0
-2.69435 -0.9121 1.6598 1.0
-6.327766 8.486684 19.492716 2.0
-6.63761 6.302381 10.09704 2.0
-5.65425 4.9929 13.1958 2.0
0.30895 -1.89605 2.4752 1.0
-3.98615 2.2639 -7.2516 1.0
-5.62245 4.9468 -18.9091 0.0
-5.34395 7.2639 -0.0369 0.0
-2.64695 6.72935 5.90755 2.0
4.255875 -7.35805 13.901377 1.0
-7.494363 1.526275 -5.323675 1.0
-7.66385 4.5296 -16.285042 0.0
-4.99255 3.1636 -12.785 0.0
-2.891287 -3.508656 11.720663 1.0
-7.7039 6.226342 -26.909185 0.0
-3.34635 -1.570933 5.514867 1.0
-7.101517 1.3348 0.512633 1.0
-6.287312 8.510048 -23.133282 0.0
3.704376 -7.83012 15.508821 1.0
-6.42475 7.8645 15.0209 2.0
-6.831725 5.1241 -24.726875 0.0
-6.322993 5.154643 -26.300814 0.0
-5.25335 3.22865 -13.23315 0.0
-6.116474 1.035076 -0.305909 1.0
-4.39085 8.0258 7.1396 2.0
-8.261517 1.691247 -2.334173 1.0
2.317764 -6.461314 12.475228 1.0
5.6792 -4.22565 4.5115 1.0
-7.88265 1.6378 -3.091967 1.0
-8.22165 4.539567 -22.700768 0.0
0.8805 0.17245 -1.076575 1.0
-3.492178 -2.474114 9.296515 1.0
-7.099575 3.670837 -12.726201 1.0
2.8896 -4.03125 6.2959 1.0
-6.083479 7.895072 12.283571 2.0
-1.291896 -4.063222 10.263716 1.0
0.50776 -2.68376 4.08388 1.0
-1.72505 3.1628 -7.0232 1.0
4.71877 -3.470866 4.337273 1.0
-1.9279 1.360084 -3.878467 1.0
5.00865 0.2256 -0.8687 1.0
6.1122 -5.2703 6.277825 1.0
-6.43915 5.9321 4.9008 2.0
-6.3116 5.905625 -26.868275 0.0
-6.421983 5.099133 -5.9232 0.0
-6.679493 5.299815 -12.101972 0.0
6.132597 -8.865752 20.081415 1.0
-6.40455 7.8407 14.3168 2.0
-6.848521 5.079328 -11.733886 0.0
6.084141 -2.504325 1.485525 1.0
5.5201 -8.457751 15.684218 1.0
7.100083 -9.343877 19.084909 1.0
-6.697661 7.900433 21.90542 2.0
2.54505 -7.2092 18.240499 1.0
8.075 -6.91275 8.296416 1.0
-6.45635 5.710763 -9.890574 0.0
-4.105816 6.11865 -3.483117 0.0
-5.150325 4.095425 -4.2864 0.0
-7.90445 4.0898 -12.3112 1.0
1.516633 -3.77605 6.255233 1.0
-7.78705 6.9694 -23.954901 0.0
-6.58045 5.0937 -9.84395 0.0
-5.30945 2.25594 -7.87654 1.0
-6.42835 5.686466 -9.098634 0.0
-7.17785 5.3875 -20.0923 0.0
-3.663425 6.284275 11.703675 2.0
-4.93575 4.7427 -11.80965 0.0
-7.097036 3.508943 -22.495115 0.0
-7.024064 8.1074 25.112156 2.0
-2.111241 -3.495075 9.467267 1.0
-2.87335 -1.8318 4.367625 1.0
-6.2134 3.6599 -23.098499 0.0
-5.468275 0.152975 4.323225 1.0
-5.292279 1.446243 -3.703986 1.0
0.53715 -6.4063 14.1648 1.0
-5.913339 1.150989 -3.303 1.0
-6.24364 6.447619 -24.667408 0.0
5.01825 -4.2824 5.2168 1.0
-6.52445 6.312867 10.72725 2.0
-4.31268 -0.43202 1.88802 1.0
2.080684 -3.633766 5.5464 1.0
-4.80755 -0.4273 4.1878 1.0
6.677899 -9.338899 19.879105 1.0
-6.47615 1.179167 -0.676267 1.0
-5.21305 5.4671 -13.6745 0.0
-5.925809 5.26596 9.12002 2.0
-3.52185 5.72095 11.89105 2.0
-4.68801 1.66338 -4.9004 1.0
9.249837 -9.083651 15.464962 1.0
-6.56219 7.10494 13.90846 2.0
-1.088375 1.332006 -3.502163 1.0
-5.66175 0.9689 -2.5528 1.0
-2.46701 0.5215 -2.1155 1.0
-5.966475 4.712699 -21.886799 0.0
-4.892975 4.487725 -14.288925 0.0
-1.08975 -3.150384 6.69565 1.0
-5.13695 7.015613 -2.283963 0.0
-6.294475 7.256575 9.31425 2.0
-6.3062 3.537475 -20.310751 0.0
-6.90335 3.652 -13.540649 1.0
-6.52685 3.3622 -15.2165 0.0
-7.98195 1.5948 0.7336 1.0
-0.502171 -5.309358 12.481879 1.0
-4.06605 6.54 10.8413 2.0
-4.279117 -1.505367 7.703383 1.0
9.106425 -8.491549 12.689462 1.0
-6.888557 1.351339 -0.130946 1.0
-6.28655 6.3294 20.93848 2.0
-4.06465 6.50885 -1.22565 0.0
-3.498793 -0.705186 2.093714 1.0
-0.47835 -3.2375 5.50185 1.0
-8.1018 2.086375 -8.08315 1.0
-6.901811 8.706866 24.5399 2.0
-6.50809 3.47512 -22.295542 0.0
-5.74035 5.5749 -14.7396 0.0
-5.502183 4.888667 7.492767 2.0
-6.1588 6.7149 26.04055 2.0
-1.91325 -2.5281 4.8041 1.0
-6.486556 1.901944 -6.527625 1.0
-5.891984 5.09345 4.722333 2.0
0.28555 -2.9638 4.64075 1.0
3.694725 -8.171268 16.476942 1.0
-5.750367 9.907067 21.848368 2.0
0.706527 -6.3101 16.09977 1.0
-4.93665 3.2742 -13.9785 0.0
-8.334465 4.495657 -25.058039 0.0
3.30555 -8.274327 17.097206 1.0
-0.3326 -5.5501 14.688199 1.0
3.306231 -6.265769 11.279125 1.0
-5.84264 3.89303 -21.492847 0.0
-9.129816 4.91105 -27.075241 0.0
-6.735251 1.447267 1.926808 1.0
3.283396 -7.511153 18.497948 1.0
-6.151825 5.2662 1.530575 0.0
-1.673337 -2.912787 6.092725 1.0
-2.72557 7.286481 7.332419 2.0
-4.687175 5.56025 18.719776 2.0
-8.26365 4.0069 -12.74575 0.0
-6.6913 5.0931 -23.882275 0.0
-8.75657 5.342279 -28.304998 0.0
-1.92675 0.147733 -1.8753 1.0
3.50805 -4.945854 7.913801 1.0
-4.11775 0.2156 -0.3525 1.0
-3.74875 3.9955 -0.3803 0.0
-3.102 -0.03315 -0.32715 1.0
4.305184 -6.46118 11.305871 1.0
1.24415 2.575 -3.8309 1.0
4.893297 -6.340247 10.492536 1.0
3.1599 -8.044534 17.716898 1.0
-7.743434 3.637383 -23.5047 0.0
-5.889517 0.688267 3.669767 1.0
-6.4956 3.459075 -11.11285 1.0
-6.30315 5.894533 -10.73005 0.0
-4.290014 5.295857 15.704889 2.0
-5.5457 6.0584 -11.3378 0.0
-4.98705 3.9033 -14.089966 0.0
7.912057 -8.367325 13.501993 1.0
5.119936 -1.653828 1.322728 1.0
4.10795 -4.50886 6.92407 1.0
-5.69435 4.295933 -20.476999 0.0
-1.0973 -5.163 16.629349 1.0
-5.49855 5.2694 18.4422 2.0
-6.36795 5.2543 -22.3913 0.0
-6.93877 7.70304 24.264008 2.0
-1.684717 -3.869334 10.089977 1.0
-7.107342 2.640515 -9.343477 1.0
5.505687 -8.971038 17.844145 1.0
-6.70055 3.51485 -19.464649 0.0
-1.916808 0.548828 -2.280217 1.0
-6.47853 5.571 -21.309139 0.0
-0.281175 -4.84345 10.311575 1.0
-4.296375 1.238725 -3.510775 1.0
-6.74505 8.6304 25.617001 2.0
3.67981 -3.7659 5.67768 1.0
-4.92667 -0.30839 4.90525 1.0
6.57145 -3.8566 2.955 1.0
-8.39195 3.5587 -12.0132 1.0
1.481406 1.535378 -2.668978 1.0
-2.85805 2.2253 -5.9323 1.0
7.10475 -9.292767 20.078299 1.0
-5.100204 -1.73884 10.285547 1.0
-4.48725 -0.679688 4.503262 1.0
5.73917 -4.23734 4.94758 1.0
-5.7129 4.64455 -0.87805 0.0
-3.046375 5.3082 2.2865 2.0
7.102294 -7.2667 10.745837 1.0
-4.92035 5.262375 17.052776 2.0
-4.23911 6.0873 18.506109 2.0
-8.6853 5.288325 -25.05685 0.0
-4.85285 9.023 14.7482 2.0
4.100784 -1.271533 1.086267 1.0
-8.42205 1.9581 -8.5837 1.0
-3.67595 9.4058 14.9092 2.0
-9.16895 5.335725 -26.091976 0.0
-6.17345 1.0715 5.277 1.0
5.25005 -5.7849 8.8004 1.0
-1.2976 -0.1213 -0.6595 1.0
-2.096142 -4.072216 11.497257 1.0
-6.82205 7.3259 -23.833099 0.0
6.84265 -3.4525 2.5715 1.0
-4.103683 -1.238533 5.692666 1.0
-3.433983 2.249967 -6.5517 1.0
-6.25115 4.103567 -7.708833 0.0
5.537125 -2.771175 2.5843 1.0
-0.87615 -2.083833 3.4998 1.0
-6.66205 5.08736 -25.516979 0.0
-7.715584 3.466583 -24.707682 0.0
-3.15535 5.5408 -11.2105 1.0
-6.062933 0.957417 1.510033 1.0
-4.9102 9.55045 18.2941 2.0
-7.35825 1.5096 2.5998 1.0
-6.12555 7.1061 27.1227 2.0
-6.727893 8.490086 22.5142 2.0
-4.16915 6.053 16.893167 2.0
-4.53095 5.502033 -7.686534 0.0
-5.2834 2.85805 -11.9671 1.0
-5.94505 0.147825 6.3554 1.0
-6.2925 6.10065 2.308175 0.0
-5.286675 9.4781 19.331301 2.0
-4.6181 -2.24615 10.529051 1.0
-6.3621 5.279125 -28.098425 0.0
-6.52495 6.5139 11.279574 2.0
-4.4681 -0.475725 3.67745 1.0
-5.321437 0.089662 5.509787 1.0
5.067412 -2.124713 2.027562 1.0
5.294212 -6.338125 10.103701 1.0
-5.0526 4.7168 -11.329201 0.0
1.901433 -7.280841 15.29285 1.0
-7.654984 3.072333 -25.294067 0.0
7.6992 -9.356059 17.89465 1.0
-5.26595 4.7164 7.0748 2.0
-4.694745 7.861344 6.307817 2.0
-2.09014 -2.25722 5.09906 1.0
-3.73875 1.7859 -7.07 1.0
0.46055 -3.1119 4.1888 1.0
7.32395 -6.829 8.7281 1.0
-5.29045 2.88195 -11.3724 1.0
6.49495 -8.65625 14.14625 1.0
-3.98865 6.6516 0.0203 0.0
-6.56925 4.447033 -9.530267 0.0
3.898383 -5.912834 9.856366 1.0
6.503076 -8.7355 15.112566 1.0
-5.56845 8.76875 15.92735 2.0
-5.665165 3.8976 -19.690329 0.0
-5.78745 6.1457 24.466801 2.0
-6.326858 5.889284 -5.687985 0.0
-6.632263 7.321401 20.498213 2.0
-5.24375 4.992 -15.5666 0.0
-7.165576 4.750075 -14.310599 0.0
-7.88455 3.769533 -22.889399 0.0
1.35705 3.62145 -4.8543 1.0
-8.04005 1.5007 -0.94105 1.0
-6.62385 6.2933 -23.4186 0.0
-9.096835 4.698086 -26.523699 0.0
-5.099969 7.281418 1.289419 0.0
-1.693125 -3.334763 8.683338 1.0
-6.13835 6.130725 -6.6527 0.0
-5.682393 5.935314 -12.480342 0.0
8.878917 -8.157433 11.665833 1.0
-4.51015 2.7082 -11.0325 1.0
3.931427 -7.470284 14.330384 1.0
-3.49535 0.291943 -0.926229 1.0
-6.5797 4.92115 -9.13835 0.0
-6.329538 5.747888 -16.085163 0.0
0.08625 -1.949225 2.89265 1.0
-5.63995 -1.2744 9.5561 1.0
-6.25625 6.3824 -24.1824 0.0
-6.57735 3.3943 -23.102501 0.0
-4.59745 3.06255 -12.6307 0.0
1.287106 -4.264222 7.121511 1.0
-6.530937 6.492338 15.062213 2.0
-6.077277 5.685614 12.916966 2.0
-4.722217 0.44755 -0.502867 1.0
-4.90685 2.519675 -9.902088 1.0
-7.83935 1.5944 1.1789 1.0
-5.28051 0.74172 -1.30196 1.0
-6.061883 3.078433 -10.6582 1.0
-3.94615 4.970033 -12.454766 1.0
-6.45205 7.16995 26.8092 2.0
6.03225 -1.6149 0.397 1.0
0.09805 -1.648529 2.1017 1.0
6.25305 -3.343825 2.665975 1.0
-8.5358 4.508875 -25.486052 0.0
-4.10653 1.913 -5.90284 1.0
-5.267875 -0.43925 6.933075 1.0
-5.484876 7.888763 8.11695 2.0
-0.507075 -4.472008 10.292857 1.0
-6.75845 8.890125 -22.567751 0.0
-6.85255 7.901782 23.304785 2.0
5.099386 -7.501709 13.107209 1.0
-6.22895 3.0129 -9.1518 1.0
-6.77565 3.3844 -28.419901 0.0
0.64703 -4.150279 8.2465 1.0
-6.273343 6.707485 5.277524 2.0
4.099527 -8.151017 16.114285 1.0
-5.16365 1.3105 -3.128 1.0
-2.10695 -1.348033 2.286767 1.0
-7.8893 4.092825 -22.5546 0.0
-0.57635 -2.7911 4.9131 1.0
-1.31095 -1.5723 2.1183 1.0
-1.71635 -2.8842 6.8875 1.0
1.876617 -0.850933 0.5057 1.0
-6.36945 4.1547 -10.9997 0.0
-2.8931 0.8604 -2.9327 1.0
-3.92995 2.6382 -10.2073 1.0
4.089804 -6.544891 11.730854 1.0
-7.257145 7.499406 -22.513195 0.0
-7.838867 4.491033 -21.091333 0.0
-6.6984 1.46289 -3.52301 1.0
-5.754233 5.7007 -15.90405 0.0
-1.9055 0.02965 -1.08715 1.0
-7.106796 3.148884 -10.931746 1.0
-5.238417 4.7168 -16.2808 0.0
3.8967 1.54665 -2.0507 1.0
-7.72455 3.85275 -20.50485 0.0
-2.905621 8.108128 10.703316 2.0
-3.66285 -1.8314 7.4431 1.0
-6.65439 7.929021 20.27684 2.0
-6.16305 7.3445 28.406799 2.0
-1.06005 -1.639 1.62495 1.0
-6.294279 6.708194 6.312482 2.0
-4.09535 -1.318257 6.703529 1.0
1.92985 -1.8526 2.1643 1.0
-9.026683 5.4525 -27.451233 0.0
-5.825717 7.219266 4.697033 2.0
-5.91395 2.70735 -9.697599 1.0
-0.70595 4.031 -6.9515 1.0
2.493465 -6.51434 12.913905 1.0
-8.691983 6.07245 -25.088366 0.0
-7.304728 1.544256 -4.305666 1.0
-0.4947 -5.056638 11.546925 1.0
3.298264 -7.123517 13.933695 1.0
5.305317 -7.094467 11.291766 1.0
-2.07175 -4.472983 14.2939 1.0
-6.873025 6.24505 -27.416075 0.0
-5.7381 6.2574 -10.4529 0.0
-1.079436 -3.679443 8.094229 1.0
-7.690644 1.557428 -3.673067 1.0
-5.717784 1.291833 -1.754567 1.0
-4.4983 6.884733 -1.512017 0.0
-2.10774 1.16119 -3.4926 1.0
4.283394 -3.721378 5.1062 1.0
-4.44475 7.1607 1.1804 0.0
-5.085628 0.0651 1.888511 1.0
-5.716616 4.915533 5.113316 2.0
-6.513794 6.504289 16.709377 2.0
6.30205 -8.205 12.89095 1.0
-5.833417 5.1067 -20.044931 0.0
-6.34779 6.11252 1.68424 0.0
1.68529 -3.48526 5.27316 1.0
-4.70985 6.8534 -3.065458 0.0
-4.221088 5.669175 17.3242 2.0
-0.71356 0.93492 -2.71155 1.0
-0.7292 -5.1459 16.852402 1.0
-6.01825 5.369 9.6621 2.0
-5.906125 7.686925 8.908 2.0
-2.79115 5.302667 3.2822 2.0
6.094111 -8.926355 16.717594 1.0
-5.433484 4.4995 -18.313799 0.0
6.695504 -7.11594 10.70368 1.0
-7.1216 3.4786 -24.059799 0.0
-4.919083 6.481267 21.052801 2.0
1.92315 -5.33745 10.013149 1.0
-5.5145 4.7588 1.8283 0.0
-4.54075 0.023975 1.27185 1.0
-6.61045 7.50385 16.26185 2.0
-4.05865 5.088 6.9232 2.0
-5.16995 0.6098 0.68045 1.0
-4.450225 3.676425 -11.872375 0.0
-3.30613 -1.87688 5.91612 1.0
-6.458137 6.516525 18.9062 2.0
-3.307285 -2.882614 10.301972 1.0
-6.871 6.67385 27.1087 2.0
5.486005 -7.904909 13.699927 1.0
-6.89633 8.118339 -22.102291 0.0
-0.90195 -3.91925 9.284867 1.0
-5.677695 0.522733 3.054989 1.0
-7.31555 4.5845 -13.307 0.0
6.8918 -8.029417 12.314434 1.0
-0.273479 -5.645072 13.096887 1.0
0.0773 -2.83275 3.8346 1.0
-7.46635 1.4949 2.1843 1.0
-4.65995 3.050966 -11.7441 1.0
-8.307217 4.040933 -25.735067 0.0
1.706533 -4.673967 8.494367 1.0
-6.0984 7.516975 9.724375 2.0
-6.269425 5.513475 7.720125 2.0
3.328193 -3.267471 4.6962 1.0
0.712583 -2.420034 3.357034 1.0
-6.504807 6.298428 14.098257 2.0
2.48015 1.1313 -1.657827 1.0
-3.61495 -3.6575 13.8285 1.0
-4.19755 6.4135 17.690201 2.0
-4.246725 -0.84455 4.92055 1.0
-5.04855 2.3751 -8.8579 1.0
-0.306317 -2.9139 4.465084 1.0
-2.532125 -3.97955 13.506001 1.0
-3.10705 1.87675 -5.536175 1.0
-6.308584 7.0552 7.7047 2.0
2.728784 -7.885922 16.890312 1.0
2.315433 -0.5003 0.32255 1.0
-6.355411 7.47922 12.26046 2.0
-6.68315 7.49 27.732201 2.0
1.467083 -2.3863 3.7044 1.0
-6.686 7.2999 19.077099 2.0
4.06425 -5.6146 9.02235 1.0
-6.63885 6.74975 25.917675 2.0
-4.3113 -2.06575 9.09635 1.0
-6.35857 1.23904 4.09348 1.0
-6.650875 8.275 20.935949 2.0
-2.94595 8.0162 9.784699 2.0
-6.0715 6.274875 -7.085912 0.0
-6.4857 1.13595 4.8485 1.0
3.70606 -6.669511 12.490733 1.0
0.91455 -4.82935 9.5041 1.0
4.71515 -8.6683 19.239 1.0
-3.69835 9.4973 16.1917 2.0
4.499907 -5.2804 7.860043 1.0
-4.01855 5.4913 -4.106067 0.0
-6.49851 1.51399 -4.077455 1.0
-0.877467 -3.1394 5.70965 1.0
-5.05265 -0.3829 7.4894 1.0
-6.540583 4.095433 -26.518585 0.0
-5.104517 7.366716 2.322358 2.0
-8.1204 6.451775 -25.667 0.0
-7.919917 5.774601 -28.068733 0.0
-5.49695 6.463699 -7.240467 0.0
-1.72755 -4.53685 15.3469 1.0
-7.20165 1.3012 -1.0104 1.0
8.18155 -6.8995 6.8161 1.0
-4.48461 5.36836 17.090519 2.0
-6.66325 7.25445 17.68535 2.0
-6.880929 3.5082 -20.501881 0.0
2.093056 2.085927 -2.870524 1.0
-2.892925 -2.46215 7.27215 1.0
2.086837 -7.497907 15.886747 1.0
-5.2643 4.501225 -16.7064 0.0
-3.97955 9.7041 17.5931 2.0
-4.71295 5.8494 -9.5939 0.0
-4.19365 8.6672 11.444 2.0
-0.0936 -0.6243 -0.0244 1.0
-1.73235 -1.4509 2.7981 1.0
-4.712984 5.110533 15.048066 2.0
2.3043 -2.43915 3.14885 1.0
-3.07905 0.751 -2.5126 1.0
-7.870925 4.904425 -22.48295 0.0
4.741179 -9.043372 18.343084 1.0
-7.056383 4.7216 -12.654733 0.0
-6.94205 5.53055 -19.714901 0.0
-7.58635 4.7806 -18.716801 0.0
5.8833 -1.34445 0.1031 1.0
-6.62425 7.5253 18.5044 2.0
3.520332 -8.088264 18.256973 1.0
-1.90655 2.299977 -5.551423 1.0
-5.56155 3.567467 -17.7383 0.0
8.516083 -9.6704 17.870199 1.0
-4.516925 6.6711 -3.4902 0.0
-2.638175 5.5249 4.09065 2.0
-6.08455 4.9289 -23.3946 0.0
-5.922267 7.0946 3.721717 2.0
-5.40065 8.0369 8.6378 2.0
0.7007 -1.7814 2.65735 1.0
-8.568935 6.290457 -24.255484 0.0
-5.08801 -0.07182 3.10272 1.0
-5.4812 0.5306 -0.1037 1.0
-5.909867 6.094833 22.315002 2.0
7.706635 -8.216 13.103272 1.0
-6.63875 7.7371 19.490551 2.0
-5.21255 6.9841 -3.2452 0.0
-5.80935 4.92245 -20.442249 0.0
3.23045 -6.7874 13.2408 1.0
-3.20775 -1.8234 4.8916 1.0
-6.89275 8.620475 -21.888474 0.0
0.080017 -4.655822 10.123229 1.0
-0.064107 -5.863056 13.902994 1.0
-7.846961 4.107145 -22.065538 0.0
-7.303838 3.51585 -12.101399 1.0
-7.51945 6.5075 -23.50535 0.0
2.88405 -7.471884 18.285082 1.0
-5.942 6.1639 -8.6605 0.0
0.097113 1.543458 -3.468109 1.0
4.707626 -8.632768 17.118078 1.0
8.9447 -9.6386 16.478249 1.0
-7.9678 3.8497 -24.168251 0.0
-3.16185 8.1501 12.4723 2.0
1.885005 -2.757311 4.248722 1.0
-7.79885 3.0382 -27.3097 0.0
-6.60375 5.6069 -13.3223 0.0
-6.047844 5.728037 16.895912 2.0
4.310626 -4.297817 6.286575 1.0
3.830664 -8.364271 18.159384 1.0
1.85085 2.0884 -3.2736 1.0
-7.94515 6.785 -22.9855 0.0
-4.09225 1.3119 -4.3746 1.0
-6.47415 6.0889 -25.1185 0.0
8.508096 -8.077737 11.479646 1.0
-6.05965 6.268566 -4.319267 0.0
-4.42925 6.3668 -4.2342 0.0
-5.65575 6.6468 -4.368 0.0
-3.32045 1.318237 -4.09 1.0
7.497813 -9.517848 18.902412 1.0
-6.51355 4.27568 -25.446918 0.0
-7.11265 2.7487 -10.108367 1.0
-6.486 5.91295 13.284217 2.0
4.92377 -8.06474 14.88914 1.0
-6.73405 8.8083 25.1572 2.0
-2.69985 1.18 -3.8783 1.0
-1.083757 -5.068027 12.881787 1.0
-6.31325 7.7172 -24.187901 0.0
0.2366 -3.5281 5.1247 1.0
-6.177483 8.167634 15.944366 2.0
-4.906379 0.632071 -1.093243 1.0
-3.21655 2.5375 -6.9008 1.0
1.899017 -5.356753 10.666887 1.0
-3.32355 -2.2733 7.4757 1.0
-2.65467 -2.02772 5.49422 1.0
0.5604 -5.8137 12.092199 1.0
8.479864 -7.902459 11.07626 1.0
-3.56955 -0.7997 2.8099 1.0
8.48125 -8.7183 13.961933 1.0
-5.682606 1.5042 -4.505367 1.0
-4.37205 4.5992 -2.9986 0.0
-6.25901 0.95398 4.52254 1.0
-7.71643 1.5459 -4.92866 1.0
-0.78655 2.9239 -6.0975 1.0
-7.76175 4.6636 -17.871899 0.0
-5.34505 0.4673 5.8007 1.0
-6.712801 4.917083 -10.2872 0.0
-4.63565 -0.4397 3.2912 1.0
7.276593 -5.143381 4.297728 1.0
-3.89875 -2.108757 8.895551 1.0
-4.742133 -0.877133 6.852566 1.0
-0.6784 -5.4094 15.270901 1.0
-5.24714 6.28762 22.695599 2.0
-4.21345 5.2224 -5.1623 0.0
4.516636 -6.1064 10.315585 1.0
-4.89865 5.669134 19.923134 2.0
-5.88935 4.91485 0.559125 0.0
-2.18065 0.3478 -2.6424 1.0
-6.751381 7.297632 23.081987 2.0
2.540387 2.46795 -2.945612 1.0
-4.324636 6.684314 -2.112586 0.0
-4.94039 4.672401 -9.713119 0.0
3.90707 -6.32398 10.88084 1.0
6.91245 -9.496824 17.721838 1.0
-4.70928 -0.71138 6.11104 1.0
0.913928 -6.664478 15.344945 1.0
8.85545 -9.1435 17.454 1.0
-7.48575 3.6918 -20.884426 0.0
-7.700241 3.871519 -21.303419 0.0
-2.876616 0.457933 -1.677117 1.0
-6.110597 6.892552 -24.29314 0.0
-2.341183 -4.156 14.253468 1.0
-2.6974 3.05255 -7.52355 1.0
6.952 -9.4275 16.880249 1.0
-7.15495 7.902325 26.498951 2.0
-1.096517 -2.681933 4.5738 1.0
-7.284677 1.5295 -0.321518 1.0
-6.303282 5.761279 -14.113718 0.0
-3.56925 5.49305 -0.123975 0.0
4.94485 -0.4955 -0.0378 1.0
-5.1168 5.168375 15.677876 2.0
-3.32189 0.67256 -1.92038 1.0
-2.47815 6.5821 6.9097 2.0
9.647384 -8.9679 14.460334 1.0
-6.304467 5.71285 6.170383 2.0
-6.10265 3.9682 -6.9428 0.0
-6.53345 3.497238 -25.721537 0.0
-4.7201 9.3082 16.276749 2.0
-3.82615 9.6414 16.7617 2.0
7.32751 -7.03714 10.091741 1.0
-7.31115 7.459667 -23.628832 0.0
-4.931483 4.035833 -3.497267 0.0
7.888866 -9.250191 16.135475 1.0
-3.9572 6.06575 17.525799 2.0
-3.239733 2.271333 -7.312466 1.0
-6.08967 5.30882 5.4778 2.0
-1.71535 -2.697455 5.696866 1.0
-7.69425 2.9797 -26.315001 0.0
0.25565 -3.583033 5.692033 1.0
-7.67065 1.664367 0.335533 1.0
-5.742217 9.057 18.107 2.0
-5.72435 1.2025 -1.0952 1.0
-5.680687 0.318262 5.517325 1.0
0.889089 -6.543915 14.486731 1.0
2.94198 -6.90366 18.895229 1.0
-6.45055 5.1074 -23.053701 0.0
-5.070578 6.297982 -13.733118 0.0
-6.109242 1.097643 -1.298893 1.0
-3.70337 4.89712 -11.711119 1.0
4.861306 -4.970022 7.239433 1.0
-5.94901 3.91761 -22.50654 0.0
-5.16345 6.2393 -8.6339 0.0
-1.695683 -2.068267 3.6611 1.0
-4.115817 0.908333 -3.098767 1.0
6.72371 -7.62412 11.358199 1.0
2.9137 -7.01905 19.3652 1.0
7.296691 -7.699244 11.905722 1.0
2.50107 -4.76318 8.470779 1.0
-7.08025 6.4463 -23.060801 0.0
-8.077749 2.42432 -8.90518 1.0
0.497533 -4.4732 9.473317 1.0
4.114317 -7.267933 13.510516 1.0
-5.70005 5.3338 15.67035 2.0
-1.899683 -3.2918 8.284166 1.0
8.727016 -7.849966 9.173333 1.0
-7.3438 3.47815 -23.69565 0.0
1.093573 -5.924395 12.28907 1.0
7.701328 -7.535334 10.73751 1.0
6.30265 -2.2554 0.7478 1.0
-7.466441 4.87889 -15.692289 0.0
-6.66975 3.89765 -27.692051 0.0
-8.312069 1.558737 -5.320826 1.0
-2.519261 5.871878 4.946855 2.0
-3.59575 5.7586 11.1004 2.0
6.278041 -5.9571 8.096508 1.0
-4.8975 8.03295 6.891134 2.0
-2.906193 -3.096714 9.88827 1.0
-5.881488 5.530795 16.523823 2.0
-0.10035 -4.36505 9.653975 1.0
-6.22075 6.64425 4.11815 2.0
-5.9723 5.856 18.919025 2.0
-3.2996 1.23025 -5.06555 1.0
0.72865 -4.2515 7.71725 1.0
-7.878433 2.022283 -7.533634 1.0
-4.915035 -0.311338 5.318531 1.0
-3.5329 -0.98215 3.5483 1.0
-5.685175 0.722337 0.91215 1.0
-4.4294 -2.894 12.48565 1.0
8.35325 -9.3511 18.743799 1.0
-7.31623 3.6597 -20.08222 0.0
-8.23605 3.9785 -22.115999 0.0
-8.1516 4.105349 -24.75065 0.0
-3.10585 -0.89376 2.29482 1.0
-0.46795 -0.25365 -0.718283 1.0
-6.306422 3.485243 -21.057713 0.0
-3.89135 1.94718 -7.69392 1.0
-6.366325 6.072125 0.51675 0.0
0.07385 -4.348534 8.915133 1.0
-4.40365 3.1103 -11.1493 1.0
-2.69585 1.0264 -4.3286 1.0
2.67645 -4.679333 7.680067 1.0
5.26615 -8.8523 16.825899 1.0
0.89695 -4.33438 8.517361 1.0
-6.6955 1.893743 -6.901043 1.0
-3.84647 5.71034 8.06644 2.0
-6.71665 6.4095 21.0198 2.0
-8.290525 3.274725 -27.7222 0.0
-7.48715 3.45265 -25.435501 0.0
6.4316 -9.176951 15.989349 1.0
4.058675 -8.52095 18.528275 1.0
-4.09985 6.0918 -12.3065 1.0
-5.48275 0.3759 1.4382 1.0
-8.319589 5.857438 -27.451231 0.0
-5.917727 6.061723 -25.526043 0.0
-6.306551 4.140684 -10.308817 0.0
7.702066 -7.282816 10.073318 1.0
-2.11135 -0.3222 -0.88175 1.0
-8.896034 5.881883 -25.686083 0.0
-5.929 6.3626 -3.51335 0.0
3.64375 -1.68225 1.64735 1.0
-2.101175 -0.6579 1.12295 1.0
7.65225 -9.4041 16.568399 1.0
-5.8515 7.65585 7.97325 2.0
-5.307175 0.09665 4.696742 1.0
0.095913 0.243325 -1.3118 1.0
-3.95865 -1.74775 7.8908 1.0
-7.1289 1.38675 -1.91425 1.0
4.02865 -7.3298 19.575068 1.0
-6.29985 6.0838 -2.0239 0.0
-1.102917 -3.727966 8.501 1.0
3.1014 -5.019825 8.268749 1.0
-4.64845 5.7028 -13.4467 0.0
1.087112 -3.680923 5.688162 1.0
-4.769017 5.2602 -9.061833 0.0
7.109578 -5.301973 5.283428 1.0
-4.79665 9.6147 17.859699 2.0
3.10015 1.635 -1.95953 1.0
-3.07365 -3.271167 10.727734 1.0
-4.7285 6.6284 -4.9775 0.0
8.505031 -9.297071 17.307344 1.0
7.850275 -9.6431 19.24865 1.0
8.09659 -6.52742 6.66714 1.0
-1.884259 4.460282 -8.709054 1.0
-1.44305 -3.2276 6.9244 1.0
-4.958762 5.295513 -14.320912 0.0
2.1272 -1.51605 1.56795 1.0
-6.555613 6.895975 15.125924 2.0
0.067136 -5.944286 14.48613 1.0
-5.912025 3.929163 -22.084463 0.0
-6.44348 4.30149 -8.88417 0.0
0.87505 -2.2194 3.0042 1.0
-5.489916 0.309467 2.65985 1.0
3.297125 -8.031858 16.271921 1.0
-5.914549 1.9134 -6.894867 1.0
2.50281 0.03808 -0.3406 1.0
-1.22525 2.4477 -5.3724 1.0
-4.671783 -2.0878 10.095717 1.0
4.9128 -7.3164 12.278625 1.0
0.87816 -6.14703 16.93663 1.0
-1.98435 -3.7616 10.6006 1.0
-1.31555 -1.9702 3.1326 1.0
-6.290325 8.304924 17.311375 2.0
-5.02435 8.4037 11.1236 2.0
-4.30505 7.44485 3.31875 2.0
-3.3003 4.3073 1.0543 0.0
-4.10465 5.2216 14.7385 2.0
6.899655 -8.872605 15.293769 1.0
-5.675 5.5091 19.64665 2.0
-3.481806 -3.2513 11.947727 1.0
-3.95905 4.9673 -2.7079 0.0
-3.8393 5.459183 -12.12495 1.0
-3.088225 7.92395 9.128125 2.0
-1.491366 -4.715057 13.096452 1.0
-4.87285 6.4271 -6.796 0.0
-6.13145 4.6601 -28.280367 0.0
3.918625 -3.639425 4.8676 1.0
-3.23225 5.0123 1.6535 0.0
-3.7822 4.93695 -1.28595 0.0
-7.58517 4.30766 -18.517338 0.0
-0.689578 0.5416 -1.91445 1.0
-7.90375 4.5305 -13.2185 0.0
-6.8227 5.43245 -16.520901 0.0
0.10715 2.9207 -5.1617 1.0
2.88509 -1.21554 1.34542 1.0
4.101206 -8.551156 17.496195 1.0
-3.81445 -1.4274 5.3343 1.0
-5.3601 6.02285 -9.9772 0.0
9.278825 -8.756624 13.705137 1.0
4.270517 0.038733 -0.327533 1.0
-6.53055 8.8251 -23.0464 0.0
6.094686 -7.874036 12.293381 1.0
0.216 -5.5621 12.443399 1.0
-6.516173 6.699558 18.478865 2.0
-4.40525 8.758 11.9204 2.0
-3.67945 4.890433 -0.504033 0.0
-7.57105 2.8719 -28.212099 0.0
8.77715 -6.9769 7.6155 1.0
-4.484016 9.887299 18.077967 2.0
-4.69895 2.08 -7.5291 1.0
4.33615 -1.81125 1.6366 1.0
-4.71575 4.4376 -4.2344 0.0
4.684432 -7.540964 13.884719 1.0
4.921417 -7.097267 11.675834 1.0
0.930405 -3.318433 5.0741 1.0
-3.95615 4.557734 -12.111033 1.0
-4.18005 4.2822 -3.7057 0.0
-6.576675 7.109608 15.535476 2.0
-6.314375 4.89295 -27.486074 0.0
-6.69635 1.27246 0.3173 1.0
-2.147417 -1.9748 4.3068 1.0
8.309067 -9.076067 15.679701 1.0
-6.29911 7.07798 26.1569 2.0
-6.2852 5.6966 -3.8565 0.0
3.06265 -7.573959 15.097341 1.0
-8.20995 1.5806 -0.1923 1.0
-4.08075 -2.621 10.48075 1.0
-0.707619 1.270953 -3.293984 1.0
-6.304981 1.090556 0.878806 1.0
-6.21485 5.772933 15.483734 2.0
-6.4392 4.13 -9.31285 0.0
-8.381184 1.384567 -2.715467 1.0
-6.66305 3.4912 -24.0289 0.0
-4.76755 0.4119 -0.0943 1.0
-6.409778 5.715471 0.304329 0.0
-6.42625 5.8011 -11.8989 0.0
-6.489 3.33475 -16.728001 0.0
-6.569687 7.083825 21.477362 2.0
-4.50685 -0.94551 6.50511 1.0
1.27895 -6.906014 15.093699 1.0
-4.463117 4.084167 -2.2783 0.0
-4.345459 5.340164 16.450172 2.0
-0.497823 -5.496091 13.5034 1.0
-3.9102 1.54095 -4.7024 1.0
8.52275 -8.453866 13.067166 1.0
2.90755 -2.6301 3.367 1.0
-5.7094 4.3448 -5.3596 0.0
-5.963275 5.463575 -19.31395 0.0
6.50265 -3.472683 2.265217 1.0
1.309136 -6.280086 17.711615 1.0
-1.0256 1.65615 -3.98425 1.0
-4.091435 -0.885786 4.102414 1.0
5.489661 -5.294684 7.300989 1.0
2.40475 -7.359 17.376699 1.0
-4.673083 -1.504583 8.329433 1.0
-2.890367 4.313283 -9.888967 1.0
1.666779 -4.773785 9.090586 1.0
-6.0423 8.2802 13.55055 2.0
-6.61995 6.94 22.896599 2.0
-5.34325 3.8979 -16.277599 0.0
-6.28045 6.819 4.5419 2.0
-5.9111 6.13115 -11.706901 0.0
-6.57675 4.4105 -10.0066 0.0
-6.00095 6.4821 -2.7839 0.0
-3.57525 -1.167733 4.289367 1.0
-2.128436 -2.740614 7.145143 1.0
8.443093 -7.759271 10.679814 1.0
7.13403 -6.09832 7.09398 1.0
3.67755 -5.357728 9.243172 1.0
-5.33005 5.152 13.9283 2.0
-7.8424 4.7079 -19.27705 0.0
3.90035 -7.8888 15.1264 1.0
-4.8235 3.702125 -13.3069 0.0
-0.505736 -1.673314 2.342571 1.0
1.478713 0.462011 -1.269363 1.0
-7.1345 5.52195 -21.665974 0.0
-3.229775 6.1072 2.45075 2.0
1.528283 -7.231667 15.491966 1.0
6.297925 -7.4389 11.171101 1.0
-1.317675 -2.101925 3.9253 1.0
-7.318025 4.2859 -15.33295 0.0
9.28045 -8.9044 12.8338 1.0
-8.17205 4.1914 -13.2002 0.0
-7.47435 7.0139 -24.492201 0.0
-8.321333 5.750333 -28.096535 0.0
-5.27815 4.5905 2.4942 2.0
9.100678 -7.711986 9.093844 1.0
-5.28215 8.0765 7.603 2.0
1.092995 -4.546791 9.115854 1.0
-1.7565 -4.3529 13.06495 1.0
-4.500827 -0.091223 1.7023 1.0
-5.61385 4.506067 -19.725836 0.0
8.78695 -9.658 17.0415 1.0
-2.666183 -3.611566 11.130466 1.0
-5.320016 6.1117 -9.374166 0.0
8.37395 -7.8087 9.9541 1.0
-1.683217 2.824433 -6.3215 1.0
0.82175 2.924 -4.6468 1.0
-6.54605 6.2284 -26.8155 0.0
-6.74475 4.53635 -10.9881 0.0
-6.85545 7.4091 27.278601 2.0
-6.285917 5.681767 2.342167 0.0
-3.90925 5.6351 7.3201 2.0
-5.26125 -1.01815 8.0623 1.0
-3.98665 5.880242 15.413385 2.0
-5.29795 5.1141 13.46085 2.0
-4.81385 4.3667 -9.4282 0.0
-1.103741 -0.679845 0.514909 1.0
-8.1262 3.1709 -11.3217 1.0
-6.09653 6.30139 23.263401 2.0
-2.92515 0.69775 -3.3001 1.0
-1.72855 -4.8406 15.946067 1.0
0.285694 2.133756 -4.091023 1.0
-4.695383 1.98345 -6.867067 1.0
-6.9023 3.46915 -21.088249 0.0
3.522675 -7.107488 13.504074 1.0
6.51575 -9.2581 16.473858 1.0
-2.521372 -3.097511 8.899567 1.0
-6.899139 5.09384 -12.89377 0.0
-9.046817 3.562267 -27.932302 0.0
-5.59955 1.0955 -0.7252 1.0
-3.911683 -0.338083 1.525633 1.0
-6.752179 8.092114 22.470526 2.0
6.512117 -6.7214 9.2823 1.0
-6.05391 0.51194 5.68288 1.0
-7.09305 3.27745 -19.953899 0.0
7.90559 -7.665008 11.270318 1.0
-1.718167 -4.547866 14.518883 1.0
-6.440375 4.463775 -27.721949 0.0
4.49953 -8.063419 15.532746 1.0
-6.4963 4.68447 -24.676708 0.0
-0.46145 3.8171 -6.5647 1.0
6.27513 -9.2499 17.684719 1.0
-6.485083 6.4982 -25.931067 0.0
-3.281504 -2.2743 7.902469 1.0
-1.666628 -4.472778 11.9157 1.0
-4.18865 2.5479 -9.8985 1.0
-6.35955 4.6501 -7.4395 0.0
2.01745 -5.3506 9.4597 1.0
-5.701373 7.249524 2.911784 2.0
2.927437 -0.340787 0.211988 1.0
-1.163937 -4.767262 12.488425 1.0
1.93985 -4.3026 6.9665 1.0
-3.48151 0.16236 -0.50958 1.0
-0.077267 -2.45055 3.732383 1.0
-5.280022 -1.053686 8.484444 1.0
-6.22625 6.0909 -3.9041 0.0
-6.314721 6.3056 5.498943 2.0
-8.28575 4.0583 -23.800501 0.0
-2.88885 -2.7081 8.508672 1.0
-5.29325 8.22178 10.515361 2.0
-3.097807 -3.855086 13.725272 1.0
-5.31425 7.1318 -1.0601 0.0
7.108566 -9.487842 19.515312 1.0
8.23025 -6.1448 5.8905 1.0
-8.094271 1.55202 -4.07706 1.0
-1.87315 0.1884 -1.4823 1.0
-4.669725 9.870399 18.697001 2.0
1.305012 -4.505185 8.28947 1.0
4.902383 -8.860633 17.685814 1.0
-6.453627 4.108417 -28.492756 0.0
-5.419825 3.869775 -17.104376 0.0
-6.497289 6.71224 24.074068 2.0
3.096076 -5.761105 10.684225 1.0
-4.445025 6.216775 20.134575 2.0
-6.79785 1.5959 -5.8397 1.0
-5.293795 -1.151455 9.073777 1.0
-3.843117 4.105133 -10.695133 1.0
-3.937817 6.281433 -1.956033 0.0
5.88009 -4.68152 5.75058 1.0
5.3228 -2.33205 1.7333 1.0
-6.65285 5.6072 -17.6828 0.0
-7.89835 4.5784 -14.1099 0.0
-1.8666 -2.3277 4.44775 1.0
-5.25945 6.8086 -5.5269 0.0
-5.27695 8.8654 15.0451 2.0
-6.60515 6.6946 -24.1236 0.0
-4.3079 -1.2836 7.257925 1.0
-3.910767 -1.907417 8.302466 1.0
-6.20855 9.4008 23.408701 2.0
-7.53715 4.116375 -18.9226 0.0
0.0818 0.5686 -2.2323 1.0
2.420617 -4.5859 8.057733 1.0
4.114558 1.264208 -1.563867 1.0
-6.04985 3.1299 -11.4911 1.0
-2.91315 -1.2316 2.5215 1.0
-6.26535 1.1013 2.32445 1.0
-2.701675 -3.4473 10.331675 1.0
2.700525 -3.380325 5.27335 1.0
-6.530467 6.324 13.118999 2.0
1.095311 -6.48342 13.706053 1.0
-4.7038 7.77685 5.458425 2.0
-6.684183 7.04108 27.722578 2.0
-4.2708 9.3698 15.87085 2.0
-6.05715 2.8336 -8.6759 1.0
-4.176217 6.449434 -2.7024 0.0
-3.476675 6.129825 12.489676 2.0
-3.36385 8.5655 13.7225 2.0
-6.12121 1.06204 3.68592 1.0
-2.72129 -2.16802 6.468719 1.0
7.4528 -4.8986 3.8816 1.0
-9.303 4.3143 -28.339001 0.0
2.713483 -4.25962 7.11312 1.0
-3.50465 4.054767 -10.307633 1.0
-6.080017 6.6526 -0.095433 0.0
-2.93285 -1.739023 5.276054 1.0
-5.301869 4.09322 -16.654579 0.0
-6.8311 3.4549 -26.684099 0.0
-8.664763 3.291287 -27.877737 0.0
6.97425 -3.7272 2.8242 1.0
-5.6568 6.51055 24.9433 2.0
7.085683 -9.288633 16.126333 1.0
1.90135 3.0831 -3.96965 1.0
-8.31515 1.7202 -0.5695 1.0
5.35174 -8.01957 14.326268 1.0
-6.37865 7.7897 17.322701 2.0
-5.943113 6.9216 1.528863 0.0
-5.44645 5.3417 -15.7139 0.0
-1.55925 -0.7604 0.907 1.0
-6.90825 2.2098 -7.7433 1.0
0.089367 -1.356467 1.503183 1.0
4.16435 -7.0006 12.3552 1.0
-2.0583 -0.4908 -0.2923 1.0
3.55845 -8.421866 17.513033 1.0
8.047625 -9.706699 18.469351 1.0
-3.493125 1.48945 -4.660775 1.0
-0.89449 2.11276 -4.73892 1.0
-4.302375 7.750938 5.70395 2.0
-6.92035 5.6289 -22.9699 0.0
-4.981184 5.904433 -14.060433 0.0
-3.78955 5.8699 -2.142 0.0
-7.55385 1.6044 -2.437 1.0
-4.09005 3.6857 -10.424 1.0
-0.503467 -4.289917 9.935433 1.0
0.56175 1.4424 -2.9685 1.0
-4.6738 5.1261 -13.89935 0.0
-5.29155 0.903357 -1.681114 1.0
-9.0208 5.6544 -26.471951 0.0
-6.091977 1.697473 -5.897363 1.0
-4.23645 6.7588 -0.7217 0.0
-6.329625 5.100087 -3.310375 0.0
-4.34045 9.4717 16.3832 2.0
-5.97595 6.1266 -9.5169 0.0
-5.087936 5.289429 -12.252386 0.0
-6.449483 4.885889 -7.103933 0.0
-7.868267 3.109967 -28.066833 0.0
2.072925 -6.11025 19.045376 1.0
-7.71875 1.632383 -1.683117 1.0
-6.47945 8.11405 -22.909351 0.0
-4.27735 5.4971 -5.6962 0.0
-6.88875 1.5013 -5.0609 1.0
9.42835 -9.2348 15.982 1.0
1.702811 -7.113538 16.308731 1.0
-6.4106 6.52735 24.741451 2.0
-1.329423 -4.733373 13.675228 1.0
6.490141 -8.34925 13.719467 1.0
-6.69915 3.6235 -11.9274 1.0
1.109217 -1.748733 2.4898 1.0
-3.07935 0.320033 -1.089267 1.0
-3.28205 2.902823 -8.111724 1.0
-8.54295 6.11765 -26.103649 0.0
5.31295 -4.0407 4.5453 1.0
5.511231 -6.6649 10.119655 1.0
-6.38655 3.5542 -12.7391 1.0
6.6802 -5.155826 5.74145 1.0
-4.328033 2.717217 -10.328117 1.0
3.12059 -3.08298 4.1536 1.0
6.643025 -7.59375 11.8162 1.0
