# .PCD v0.7 - Point Cloud Data file format
VERSION 0.7
FIELDS x y z label
SIZE 4 4 4 4
TYPE F F F U
COUNT 1 1 1 1
WIDTH 1598
HEIGHT 1
VIEWPOINT 0 0 0 1 0 0 0
POINTS 1598
DATA ascii
3.894627 6.097061 4.878946 0.0
10.497122 1.497571 -11.704042 2.0
-12.87635 2.643225 16.492001 0.0
-10.49236 2.909767 14.876179 0.0
11.20045 5.6858 -21.775499 2.0
-8.691837 0.077575 9.316225 0.0
4.75375 5.479 1.0715 0.0
11.7463 2.902 -18.456699 2.0
7.30695 -3.5184 23.685801 1.0
10.305525 -5.632675 28.736324 1.0
5.94655 1.895633 -5.0915 0.0
7.9147 -3.90155 22.296129 1.0
11.172484 1.691567 21.949432 1.0
5.26465 3.0898 -3.2968 0.0
-0.6912 3.02445 8.92105 0.0
8.669849 1.121175 -0.53455 1.0
10.699183 3.6633 -17.433899 2.0
11.330684 2.818233 -11.073033 2.0
5.8174 -0.91025 -3.94155 0.0
11.10277 5.28534 -19.31074 2.0
6.91325 6.459766 0.283367 0.0
15.61165 5.2149 -32.312901 2.0
6.20975 0.8111 6.2758 1.0
7.5031 -0.9454 9.8587 1.0
8.915216 4.923033 -8.4826 0.0
12.911316 3.481167 -22.881002 2.0
1.59435 5.0581 9.1686 0.0
-0.88518 2.32906 6.53221 0.0
0.297483 2.510783 5.531233 0.0
1.81135 3.9514 6.5159 0.0
12.2689 4.03415 -23.536499 2.0
9.257725 1.297 -9.885075 2.0
15.0208 4.57885 -29.32925 2.0
-10.93955 2.3268 14.46385 0.0
1.501428 4.666067 8.523423 0.0
-6.502467 3.066467 14.360416 0.0
7.0475 -0.1673 -5.9722 0.0
1.95125 4.845566 7.271067 0.0
3.138783 6.864033 8.104434 0.0
10.466351 0.752 4.683933 1.0
-5.295388 4.091969 20.714439 0.0
4.336689 6.882369 5.333923 0.0
12.6152 -0.70685 25.776649 1.0
7.95945 -3.0902 17.732901 1.0
10.676291 2.85012 -15.096319 2.0
-2.132836 1.163186 6.645157 0.0
-8.710816 3.566033 19.500067 0.0
-7.18845 -0.1382 7.7596 0.0
-6.299363 3.342075 16.891525 0.0
6.61465 -0.652 -4.9026 0.0
-8.286217 2.0444 11.674466 0.0
-4.697738 3.300137 15.657463 0.0
-5.09435 3.500457 17.5341 0.0
0.481088 -1.690788 1.079163 0.0
11.54305 2.7409 -16.6905 2.0
14.48075 5.6106 -27.0364 2.0
9.108025 -0.055175 5.6287 1.0
14.41925 6.664 -33.001202 2.0
11.1721 -0.12375 14.85995 1.0
12.35135 3.7703 -24.503599 2.0
12.9188 6.0495 -31.898701 2.0
-1.42075 4.63005 17.548801 0.0
12.1229 -5.90125 30.49155 1.0
12.891375 -4.28275 29.281689 1.0
12.413275 -5.244425 29.93955 1.0
-5.70945 0.55065 7.3014 0.0
11.9739 4.870475 -26.085648 2.0
10.45605 -2.9117 19.68145 1.0
2.088764 -0.7079 0.272343 0.0
10.563384 2.176733 13.083934 1.0
-9.302358 3.738599 20.072371 0.0
-3.0691 1.81265 7.95065 0.0
5.84795 1.109967 9.503967 1.0
1.45365 5.7897 12.0234 0.0
9.351049 0.43315 3.07495 1.0
-2.50349 -2.68712 2.55556 0.0
9.72535 3.2842 9.103279 1.0
-9.890106 3.152189 15.938945 0.0
11.1001 2.50675 -8.108299 1.0
3.884578 5.535814 3.538572 0.0
14.06045 3.75535 -22.70915 2.0
7.02485 -3.35015 21.892651 1.0
5.89245 3.5708 -4.1474 0.0
10.63975 2.22005 20.041248 1.0
6.078163 -1.710775 16.122499 1.0
10.0598 4.05855 0.100325 1.0
-13.494483 1.697608 14.918225 0.0
-4.80765 0.8801 7.2071 0.0
3.84985 2.42935 -1.08645 0.0
2.57185 6.09225 8.76945 0.0
-10.90608 -0.32823 9.67408 0.0
-3.462617 -0.769033 4.562383 0.0
11.931417 -2.5162 24.907633 1.0
-0.264041 3.334582 10.091955 0.0
-8.882837 3.633725 17.48995 0.0
10.808183 1.913167 0.689933 1.0
1.0749 5.10085 11.878699 0.0
13.693251 3.56535 -31.51165 2.0
9.83715 4.9362 -13.6573 2.0
12.12134 -1.50469 24.286272 1.0
10.108784 0.1345 6.7756 1.0
13.5155 3.71055 -26.7477 2.0
9.299084 3.821734 5.696367 1.0
-5.247683 -2.132833 4.760433 0.0
7.761225 -4.67295 25.239925 1.0
8.33855 1.3977 -1.4642 1.0
8.308926 0.1261 4.888575 1.0
6.73225 3.2819 6.0252 1.0
-10.10793 3.27686 17.68082 0.0
10.104055 3.912216 1.077274 1.0
14.25815 5.0083 -22.2943 2.0
-7.3588 1.19525 9.8411 0.0
3.844883 4.0931 1.7456 0.0
-8.488174 3.524275 21.529602 0.0
0.74505 -1.1592 1.1265 0.0
-11.079877 0.911755 11.889883 0.0
12.117076 3.688875 -15.095274 2.0
11.262116 2.669933 -13.744067 2.0
10.6807 3.4247 -16.093349 2.0
9.54865 5.0545 -10.9626 2.0
8.1329 4.017 2.0701 1.0
-1.09345 -0.494986 3.089729 0.0
9.47855 3.1745 11.2594 1.0
13.102976 3.515825 -25.670273 2.0
2.96415 5.27145 5.096 0.0
7.10845 4.8983 -3.712667 0.0
-2.700988 2.47575 9.476975 0.0
10.11305 1.4017 -1.1109 1.0
7.058823 -0.723282 -5.532609 0.0
10.477083 2.066542 15.333084 1.0
11.12835 2.5632 -2.4789 1.0
13.29665 -1.2526 26.563351 1.0
-3.21145 1.2004 6.8649 0.0
7.81585 5.3518 -2.6953 0.0
-3.08645 3.30579 14.50297 0.0
6.23115 -2.1628 18.7096 1.0
-13.297359 3.330118 20.312136 0.0
10.13629 3.35582 5.70806 1.0
10.90205 1.7842 -1.2626 1.0
13.296431 6.07376 -26.34082 2.0
5.701983 0.2771 -4.092467 0.0
13.144026 5.1645 -21.887899 2.0
10.344 4.517575 -18.228748 2.0
11.864088 -2.481575 24.109076 1.0
-4.290107 -3.275843 3.472672 0.0
7.54805 3.8474 -10.4398 0.0
-0.11455 3.1898 9.299 0.0
9.894206 3.321443 7.886571 1.0
-8.062917 3.525267 20.128599 0.0
-3.305383 2.626433 12.2655 0.0
7.9393 0.723425 -7.645375 0.0
9.9411 3.11995 -14.29665 2.0
9.719549 -0.926175 9.46575 1.0
8.81565 -0.1925 5.1183 1.0
14.7614 5.0904 -29.45645 2.0
15.112916 5.7368 -31.924002 2.0
10.518517 3.700223 -0.916367 1.0
11.42255 0.6883 17.8787 1.0
13.522717 3.2977 -24.068964 2.0
-2.55855 0.14315 4.56265 0.0
8.895651 -3.501 20.166149 1.0
-5.4916 1.6684 10.11635 0.0
6.98165 -0.6192 8.9696 1.0
3.085036 -1.492357 -1.1122 0.0
-2.3424 2.98245 11.8924 0.0
6.72233 5.11506 -2.91634 0.0
11.15285 5.2376 -23.7125 2.0
-7.664178 -1.113643 7.327972 0.0
14.432301 6.01945 -28.9231 2.0
8.137462 1.124345 -8.283834 0.0
-12.11335 3.784725 20.869724 0.0
6.505324 -2.089425 16.330313 1.0
11.03035 -0.131 12.5023 1.0
9.6717 0.13 3.6835 1.0
-9.665731 1.4745 11.691999 0.0
6.89795 3.3409 2.51055 1.0
0.92088 2.89601 5.28955 0.0
-1.44635 -3.336833 1.357867 0.0
5.699192 5.901517 0.895875 0.0
11.85885 4.4141 -26.834 2.0
10.91135 -0.7235 14.13002 1.0
-1.86495 -0.9144 2.7326 0.0
13.63665 3.8031 -23.4084 2.0
0.49555 -0.67545 1.5628 0.0
0.44325 3.9703 10.7613 0.0
9.081593 3.534186 9.488943 1.0
13.23081 -3.28112 28.943501 1.0
10.892834 -2.088033 18.910267 1.0
9.90073 -2.88948 19.871599 1.0
4.93525 6.3751 2.3385 0.0
2.18131 1.31 0.9359 0.0
11.503901 3.20815 -16.04085 2.0
12.98575 5.1671 -21.162201 2.0
-8.28775 3.4473 16.48045 0.0
-12.694016 1.855833 14.471934 0.0
-3.926067 1.897817 9.66335 0.0
11.269723 -0.093773 16.082827 1.0
-8.14625 0.68405 9.246599 0.0
10.879876 1.677675 6.90745 1.0
12.276084 3.4636 -22.028633 2.0
9.082425 2.538375 -7.740075 0.0
5.456683 3.665567 -3.078967 0.0
10.861576 2.661225 -0.49635 1.0
7.67215 2.3201 -3.6006 0.0
-14.692411 2.731388 19.926964 0.0
10.92655 2.3449 -11.1181 2.0
9.938 -2.14565 16.845402 1.0
4.73385 3.5968 -1.1224 0.0
10.43645 4.2041 -3.8627 1.0
13.04635 3.8973 -19.7003 2.0
8.674274 -3.683025 21.124426 1.0
10.49835 0.8344 -9.7997 2.0
9.344299 3.1617 14.69675 1.0
7.54625 1.0141 2.3629 1.0
6.76025 2.328633 -7.470734 0.0
7.51095 3.5279 -0.6353 1.0
9.10389 3.64816 8.2823 1.0
-4.925884 2.45535 11.898734 0.0
-2.91565 3.946267 17.118101 0.0
13.62045 3.1336 -27.4464 2.0
5.36755 2.1032 -4.042133 0.0
8.541175 -2.410675 14.1315 1.0
11.04459 2.89778 -4.2485 1.0
-0.30083 -1.49273 1.68469 0.0
3.31788 -2.73022 -1.65578 0.0
8.23415 3.2277 -11.3143 0.0
-1.36155 -4.205 1.2362 0.0
2.06305 3.7761 5.4711 0.0
7.129796 -2.878709 18.725492 1.0
8.914212 4.312812 -12.885575 2.0
-2.71337 -1.47982 3.46668 0.0
-3.31435 0.8586 6.306701 0.0
5.049233 1.097017 -3.713533 0.0
-7.676137 -2.340634 6.35048 0.0
9.103679 -4.883686 25.297327 1.0
11.59295 4.1554 -24.5285 2.0
-0.712007 4.277143 14.085086 0.0
9.663175 -2.014775 15.66355 1.0
-12.904906 1.4972 13.886371 0.0
-14.8762 1.8573 16.764149 0.0
11.389174 -0.31195 17.514725 1.0
11.65645 5.4725 -11.35165 2.0
10.8149 2.872625 -1.629725 1.0
-8.915534 0.640817 10.148583 0.0
14.290087 4.0905 -26.936377 2.0
0.14493 4.43476 11.88732 0.0
10.877049 1.938167 -2.148233 1.0
6.7707 3.49445 5.2917 1.0
10.08145 -5.5633 30.2523 1.0
9.83225 2.8467 15.88795 1.0
5.15995 4.7241 -0.8924 0.0
14.097349 3.54716 -29.885681 2.0
12.54735 3.9863 -26.4489 2.0
8.77445 3.34395 -12.69565 2.0
-7.907783 0.104433 8.469533 0.0
-4.096065 3.724114 18.711014 0.0
-8.18475 3.7925 22.615999 0.0
9.32695 -4.0483 22.0453 1.0
10.54195 5.4312 -18.278099 2.0
2.40965 2.5112 2.0882 0.0
12.731108 -5.516285 31.085129 1.0
11.7071 4.106875 -22.488523 2.0
9.09655 2.9073 -12.06045 2.0
0.24795 1.50418 3.89096 0.0
2.086875 -1.837675 -0.1685 0.0
9.06255 3.4092 13.2955 1.0
11.270379 3.330214 -19.507784 2.0
-4.72697 -1.65272 4.84414 0.0
9.841909 1.78346 -3.92188 1.0
6.94055 2.526133 -8.068867 0.0
10.693926 4.5058 -19.708351 2.0
3.08345 3.1929 1.8633 0.0
-1.677042 3.884831 14.711184 0.0
-5.739 -0.33815 6.3432 0.0
8.48705 -0.50412 -6.7099 0.0
12.72085 -5.7372 31.656651 1.0
9.06065 5.1643 -10.2667 0.0
-7.495175 3.115725 16.104301 0.0
10.51345 4.3232 -21.1502 2.0
11.15765 -1.7854 19.3417 1.0
-9.077849 3.908733 22.533365 0.0
12.84425 5.93935 -30.23045 2.0
3.44835 3.1203 0.82355 0.0
9.628901 2.67775 -9.662951 2.0
-1.47847 1.88238 6.93236 0.0
8.456551 -2.65405 15.85645 1.0
-0.90389 -0.0698 3.51544 0.0
9.725284 0.2856 2.064867 1.0
9.7079 -5.18485 26.655149 1.0
-11.06235 -0.739722 8.954645 0.0
13.714826 3.8576 -28.287525 2.0
8.8761 4.13015 2.771025 1.0
14.242229 6.079056 -27.908289 2.0
-2.116833 3.908183 15.672133 0.0
-2.706393 4.0874 18.299314 0.0
2.45945 -2.850355 -0.934809 0.0
12.12085 3.1754 -21.041599 2.0
11.4319 -2.261625 21.533627 1.0
6.115375 -1.302175 12.903649 1.0
10.45065 2.63865 10.8883 1.0
7.4847 -4.11775 24.350101 1.0
-5.291767 2.742883 12.4604 0.0
13.06355 3.9606 -22.502949 2.0
-1.98855 0.1873 4.8638 0.0
-0.09758 5.08541 14.708911 0.0
1.478 -3.300079 -0.551257 0.0
4.5776 6.8761 4.3164 0.0
6.67655 0.56105 7.0688 1.0
-2.306235 4.255069 17.529661 0.0
9.90515 4.46585 -4.11075 1.0
7.7738 3.0185 -1.5206 1.0
12.507749 -4.7514 29.634169 1.0
-10.287694 3.670934 18.713511 0.0
11.57245 0.7996 23.7302 1.0
8.09325 -0.110225 6.107225 1.0
14.56485 5.102767 -28.349533 2.0
10.889933 1.710846 10.483463 1.0
-10.490817 2.293033 13.9078 0.0
-13.337191 2.9446 18.363079 0.0
12.670116 -6.518967 32.391735 1.0
11.51215 0.505 21.289654 1.0
-1.45675 -2.715767 1.700433 0.0
9.683732 2.653482 -12.733063 2.0
12.00285 5.0227 -29.3347 2.0
10.0742 4.45555 -2.3566 1.0
9.76035 1.4097 -2.1769 1.0
11.089817 2.2976 4.514733 1.0
11.1051 4.290025 -9.5642 2.0
10.108475 -4.859551 25.521 1.0
2.5568 3.8725 3.372 0.0
10.451484 2.1692 -5.090367 1.0
9.714129 -2.49648 17.906401 1.0
-7.961584 -2.029733 6.849433 0.0
10.12865 0.854625 2.912 1.0
8.095251 -0.4866 7.7195 1.0
14.617016 4.3739 -28.6754 2.0
-9.1192 3.161517 16.462082 0.0
13.071899 3.818 -23.3675 2.0
-14.61555 1.1221 15.5375 0.0
1.49275 2.729933 4.4765 0.0
10.320007 2.908129 8.486186 1.0
4.97455 -1.0229 14.5924 1.0
10.87915 4.5316 -23.05315 2.0
9.312387 1.879512 -10.862388 2.0
-10.19335 -1.0093 8.6154 0.0
-0.21555 3.0194 8.0541 0.0
10.749139 2.284556 2.469478 1.0
5.12835 3.88605 -2.5285 0.0
12.42295 2.9742 -19.460501 2.0
9.54795 3.0965 17.07375 1.0
-6.31095 3.487825 19.918524 0.0
10.43295 -0.4711 11.0408 1.0
11.325912 3.53045 -20.274525 2.0
13.49927 6.32324 -28.48518 2.0
10.077635 4.252352 -1.315571 1.0
6.0576 1.74995 7.9978 1.0
5.670816 -2.865333 -3.729967 0.0
7.64095 1.3278 0.5651 1.0
7.91515 -1.4012 10.1005 1.0
6.513138 5.5155 -1.092462 0.0
10.28645 4.8779 -11.5452 2.0
7.916096 5.067463 -5.672727 0.0
8.5113 -0.66075 8.27905 1.0
5.711778 0.6728 10.318471 1.0
11.35315 -4.3688 26.676001 1.0
4.697317 -3.431634 -3.168233 0.0
5.83585 -1.3594 16.6896 1.0
12.68255 5.67105 -22.08215 2.0
3.489467 0.117117 -1.303167 0.0
6.879267 -1.963983 14.33485 1.0
-6.8256 2.48455 13.158051 0.0
7.254183 5.3942 -1.956467 0.0
-6.50295 3.2237 15.407949 0.0
-5.109757 3.655884 18.714211 0.0
9.51955 0.9367 0.064725 1.0
-1.725083 2.46515 9.289217 0.0
-9.116283 2.312633 12.352016 0.0
-6.15905 3.58255 19.06835 0.0
-4.12545 -1.6813 4.4063 0.0
11.18835 -4.7792 27.2889 1.0
-14.305379 1.6186 15.314071 0.0
8.303577 4.891582 -6.708173 0.0
6.69395 -2.3565 21.125799 1.0
11.23435 2.823 -4.8869 1.0
11.99535 -0.899 23.729851 1.0
11.917583 5.508067 -17.668699 2.0
9.83895 4.10845 -15.885799 2.0
10.73505 2.24165 -6.89105 1.0
-5.7122 2.88795 15.07885 0.0
7.170625 3.4781 -9.121275 0.0
-6.1024 -0.733333 6.695467 0.0
10.932617 -1.497883 16.882833 1.0
10.76275 4.3775 -8.0865 1.0
13.529 4.08875 -32.629326 2.0
12.03305 5.771 -21.215 2.0
-15.103879 2.074871 18.660786 0.0
2.99955 4.4457 3.3186 0.0
14.039 6.03825 -25.931099 2.0
-7.22715 0.2581 8.1523 0.0
11.31195 4.8053 -25.8902 2.0
12.61915 -0.1548 24.9835 1.0
8.89645 1.24905 -9.24695 2.0
9.08155 -0.4061 7.3233 1.0
11.2276 -4.2785 25.586151 1.0
2.459025 4.9505 6.85155 0.0
-8.299083 2.705533 14.168099 0.0
-9.12295 -1.6549 7.1239 0.0
-11.679768 2.683417 15.332717 0.0
5.68365 6.6759 1.6315 0.0
12.77745 -6.5672 33.369598 1.0
10.59845 -3.0737 20.7306 1.0
12.77375 5.8645 -33.156898 2.0
10.46465 -1.0286 12.49395 1.0
13.2991 4.046425 -30.51935 2.0
11.699551 4.31185 -12.93235 2.0
10.90175 0.498627 9.501073 1.0
3.97665 5.0612 1.9652 0.0
13.5276 3.8823 -29.127201 2.0
14.58405 4.016933 -31.2649 2.0
9.92105 5.0722 -5.4604 0.0
-6.39795 -3.2708 5.0348 0.0
13.1244 4.465875 -33.11945 2.0
12.7 3.7299 -20.961849 2.0
-0.705044 -2.337965 1.469041 0.0
9.03705 4.5082 -3.18515 1.0
12.525451 -3.896967 28.082117 1.0
10.584884 3.316733 0.331633 1.0
14.49485 4.8728 -27.737499 2.0
7.79155 4.6437 -7.9557 0.0
-2.19785 -0.7488 3.1515 0.0
-6.15785 -1.24085 6.30345 0.0
-13.40175 0.7194 11.8011 0.0
14.442317 3.959333 -29.701599 2.0
10.64565 2.66415 7.491 1.0
14.930799 5.5597 -29.77305 2.0
13.836349 5.09215 -23.472216 2.0
11.40185 2.8421 -17.312201 2.0
7.87655 6.293233 -0.348367 0.0
11.4259 0.62845 19.033001 1.0
-10.11127 3.75174 21.06134 0.0
3.41605 6.1716 7.2223 0.0
6.58965 3.0161 1.4376 1.0
8.728262 -5.308287 26.923223 1.0
-4.57395 2.7562 13.8069 0.0
10.85115 3.4235 -2.6171 1.0
9.75825 -1.5955 12.1305 1.0
1.723864 1.305329 1.9392 0.0
6.81695 1.0253 4.5797 1.0
9.81675 0.3932 1.4476 1.0
1.685036 2.511715 2.517543 0.0
11.080935 1.3138 13.706344 1.0
5.877125 1.509425 9.12195 1.0
2.23435 2.0254 1.6215 0.0
8.120135 3.688285 10.112971 1.0
0.451925 0.69705 3.278225 0.0
7.57075 4.1716 -9.1647 0.0
11.47885 4.073783 -21.855286 2.0
12.881536 3.862 -26.9119 2.0
7.45655 3.7746 6.2901 1.0
6.063413 -2.316563 -4.0891 0.0
12.163033 4.118333 -15.439918 2.0
15.72975 5.4831 -33.5056 2.0
10.1662 2.672 18.887051 1.0
7.39735 0.5997 -6.8689 0.0
-0.31685 0.7082 4.2029 0.0
-6.302534 1.505731 9.680699 0.0
6.60445 3.7382 -5.9267 0.0
8.42945 3.8002 6.8277 1.0
9.545851 2.9568 14.1313 1.0
-5.110983 2.284567 10.887532 0.0
-3.1269 -1.457225 3.8531 0.0
11.91595 5.5438 -22.88908 2.0
7.501557 -0.2863 -6.278485 0.0
8.497867 5.710949 -2.465633 0.0
10.13815 2.5498 17.809999 1.0
10.912784 1.686067 -12.329467 2.0
-2.29073 2.99332 12.90726 0.0
13.34535 3.34225 -28.146801 2.0
0.4628 3.8189 9.8976 0.0
-5.08935 -3.094345 4.108609 0.0
-6.068117 -1.89165 5.568583 0.0
6.905632 -1.918069 13.5097 1.0
13.65735 3.3151 -29.127399 2.0
-10.314674 2.0871 12.732725 0.0
-0.41925 2.4205 6.0474 0.0
-9.525417 0.715133 10.122634 0.0
12.347651 3.64675 -19.731951 2.0
8.880725 5.455775 -4.110325 0.0
8.907825 -2.935025 18.511673 1.0
10.408951 -0.2652 8.742001 1.0
10.657933 2.89395 2.678983 1.0
9.315779 4.166386 1.726843 1.0
-10.298566 3.690783 20.509834 0.0
7.49325 2.72075 -9.07645 0.0
1.45105 -4.17265 -0.71515 0.0
13.21925 6.17695 -32.362049 2.0
-4.691793 3.854986 19.703428 0.0
10.742571 1.85264 -3.34926 1.0
10.1172 -3.2458 21.425751 1.0
7.318917 3.896833 -8.5252 0.0
6.098284 -1.515117 13.887684 1.0
-0.63845 4.2075 13.3402 0.0
-2.697622 -1.887829 3.101257 0.0
-11.03775 3.3701 19.15575 0.0
6.894964 -3.103443 20.727457 1.0
1.277937 0.928013 2.516525 0.0
0.21765 2.5623 6.7376 0.0
14.08325 4.02555 -28.8908 2.0
8.087916 3.8799 5.256 1.0
-0.679217 3.879217 12.293717 0.0
-6.91515 -0.73895 6.772 0.0
-2.53305 0.743133 5.477734 0.0
-2.2416 -3.722375 1.726475 0.0
13.889 4.27995 -22.446999 2.0
-4.69485 -0.6433 5.2752 0.0
7.66935 -2.0101 13.4958 1.0
13.64935 -4.5356 30.795601 1.0
-11.34845 3.84805 21.985401 0.0
11.443065 -0.8872 18.484941 1.0
-5.00205 0.3383 6.5754 0.0
-4.73615 3.98258 20.468201 0.0
-15.33625 2.1186 20.10195 0.0
11.65895 -4.8155 27.562401 1.0
-1.40535 2.1881 7.7381 0.0
8.268425 -4.9284 26.721264 1.0
5.896801 4.490875 -2.5158 0.0
5.503767 0.51075 11.259233 1.0
10.63485 0.547 5.4154 1.0
-0.5652 1.9406 5.80465 0.0
12.474075 4.496762 -17.302851 2.0
10.18035 1.4782 -4.3418 1.0
11.56465 2.7749 -9.8607 1.0
8.38475 4.3014 -1.4617 1.0
11.7078 5.443263 -22.0749 2.0
2.881688 4.519008 4.3209 0.0
-4.01765 -0.0504 5.4259 0.0
-10.45335 0.47555 10.26575 0.0
13.465168 -2.48765 28.700285 1.0
-7.268678 1.678486 10.486528 0.0
-2.97295 -0.0044 5.2063 0.0
9.079351 4.7385 -9.1961 0.0
10.075517 2.108667 -8.352 2.0
-5.33241 2.63492 13.25636 0.0
7.510705 0.537464 4.291336 1.0
10.81015 3.8519 -4.4302 1.0
10.538549 3.6854 -15.455851 2.0
8.07725 3.9353 -0.4988 1.0
6.1572 -1.50775 18.324501 1.0
8.82455 2.4068 -10.7769 2.0
7.67195 -2.175175 14.321199 1.0
9.882617 0.312633 -9.0936 2.0
-15.125475 1.48545 17.9471 0.0
6.3335 4.5347 -3.95535 0.0
12.72909 6.1316 -27.100641 2.0
14.272517 6.6325 -32.319767 2.0
-8.109549 3.50624 17.11344 0.0
6.88735 -2.4288 -4.6929 0.0
6.9011 -1.709717 -4.861483 0.0
5.07065 0.3242 -3.1882 0.0
13.09243 3.51172 -24.89422 2.0
8.2999 2.0424 -9.6164 0.0
-2.94625 -3.2017 2.6803 0.0
0.22315 2.7961 7.3595 0.0
6.10355 3.72605 -4.7076 0.0
10.79415 3.4611 -18.616199 2.0
-5.6852 2.93785 15.9266 0.0
-6.72475 1.11312 8.728101 0.0
10.03665 4.3191 -16.523701 2.0
9.294149 -5.496216 28.341093 1.0
-9.68665 3.8016 22.3715 0.0
13.506387 6.284675 -27.718624 2.0
5.61165 3.0942 -4.2926 0.0
15.74455 5.4293 -32.789001 2.0
14.707135 6.087786 -31.757343 2.0
5.25655 4.428 -1.6463 0.0
12.28041 5.7331 -26.27276 2.0
3.81375 -2.1967 -1.7956 0.0
11.694921 -0.504757 21.468857 1.0
9.82855 0.8192 -9.5449 2.0
15.066216 5.1117 -31.432699 2.0
-2.58335 3.25275 14.684999 0.0
6.60755 2.928 -6.565 0.0
-0.80055 -3.4847 0.683 0.0
14.17355 3.694233 -27.940948 2.0
6.07355 7.2309 2.5749 0.0
10.28945 4.7759 -9.9432 2.0
12.432501 3.51675 -17.0935 2.0
3.77105 4.875225 2.48455 0.0
-9.275425 2.75935 14.503325 0.0
7.74265 -4.6215 24.2805 1.0
-6.89425 -1.0585 6.3272 0.0
12.525969 -1.72986 25.873541 1.0
10.934817 -3.122667 21.693766 1.0
9.910376 -0.142675 7.6507 1.0
7.67155 -2.925767 17.071367 1.0
11.04025 5.71685 -9.24135 2.0
8.507099 -2.5036 14.91555 1.0
-13.32525 0.526 12.3571 0.0
4.0211 6.87645 6.7528 0.0
13.69885 -3.1685 29.177799 1.0
-6.43385 0.0266 7.2637 0.0
-14.09655 3.0583 19.883551 0.0
9.0912 -4.27715 22.89975 1.0
12.73905 4.3196 -29.637798 2.0
-12.38205 3.1947 19.060101 0.0
-1.97635 -0.0713 3.7944 0.0
10.05925 5.1863 -11.9331 2.0
11.22405 1.0046 16.819799 1.0
10.65477 1.94862 -4.52104 1.0
10.902488 1.495713 5.10995 1.0
4.363417 2.687533 -2.980033 0.0
8.764135 3.562543 12.12527 1.0
-7.30385 3.447133 16.972715 0.0
-1.708321 4.246386 17.313 0.0
5.69835 1.028 8.4872 1.0
-4.21865 0.692 6.6239 0.0
7.449483 -1.890833 -5.324733 0.0
7.3307 3.84905 -7.73465 0.0
7.0821 0.09625 6.5542 1.0
-3.01685 3.6057 16.045 0.0
12.6336 5.86745 -28.904449 2.0
-9.889812 3.045175 15.269637 0.0
11.854136 -0.311787 22.886463 1.0
10.96595 3.9728 -21.257999 2.0
-10.39925 -0.9925 8.0974 0.0
11.04255 5.4436 -15.8932 2.0
3.04345 0.385 -0.6158 0.0
9.495482 5.425217 -5.122667 0.0
3.525641 -1.501209 -1.671955 0.0
11.350417 -1.712689 19.8799 1.0
7.116395 -2.667589 17.128889 1.0
-1.899833 -1.879283 2.528667 0.0
10.823951 2.489963 -1.122775 1.0
14.926275 5.737625 -30.740601 2.0
-2.885037 3.547025 15.520912 0.0
3.09879 5.09172 4.12098 0.0
10.22245 2.0984 -6.8354 1.0
-4.261167 1.482717 8.344517 0.0
-2.67255 2.3412 7.9568 0.0
9.09081 4.2568 0.73916 1.0
10.11165 4.9598 -15.535701 2.0
10.68845 -0.907325 13.138125 1.0
9.746574 -3.75795 22.252575 1.0
14.03713 3.70934 -25.082821 2.0
8.05775 4.2537 -9.7506 0.0
4.71845 4.6268 -0.0123 0.0
8.98325 -3.4391 19.3557 1.0
4.34115 4.855525 1.31215 0.0
8.3266 -1.41165 10.9618 1.0
-10.81885 2.0828 13.1388 0.0
13.68615 3.76465 -27.638802 2.0
14.289884 6.325966 -30.289316 2.0
-11.28535 0.2077 10.473367 0.0
3.40245 4.0788 2.6901 0.0
11.54075 5.5085 -12.1647 2.0
9.72315 -3.15595 20.470875 1.0
5.08615 2.501816 -4.495634 0.0
10.98605 5.1351 -22.7917 2.0
-5.1474 0.9587 8.21065 0.0
-7.52795 1.0636 9.2558 0.0
8.26265 -1.98925 13.153049 1.0
11.420349 3.838667 -10.065734 2.0
11.02203 0.91744 11.70362 1.0
-3.7539 2.97765 13.301325 0.0
10.55205 2.0546 -9.2708 2.0
-5.65855 -1.4032 5.1315 0.0
-5.893542 3.894531 20.704815 0.0
-3.279536 3.762129 17.894342 0.0
4.77845 -0.4059 12.9561 1.0
2.96905 6.3222 7.9365 0.0
4.8542 3.0881 -3.8524 0.0
-7.898607 3.471657 20.672701 0.0
12.95985 3.4948 -19.33095 2.0
-0.947917 2.719833 9.4846 0.0
12.93335 6.2106 -28.393999 2.0
9.79145 4.3322 0.4778 1.0
11.16455 4.0833 -9.081301 1.0
14.701083 4.437467 -30.859766 2.0
7.23525 1.0485 3.5739 1.0
9.11735 5.293 -7.4828 0.0
10.10465 -1.11026 11.47932 1.0
0.62065 5.3643 13.8483 0.0
-0.6513 4.818725 15.4986 0.0
10.5257 0.271225 7.669225 1.0
-13.73005 0.7652 13.3238 0.0
1.96695 4.28955 5.5719 0.0
-15.60905 1.9648 18.481199 0.0
12.33355 0.2189 24.1294 1.0
12.91245 4.756 -18.752251 2.0
10.52915 -5.30385 27.61035 1.0
5.529217 -1.5059 -3.684067 0.0
10.68325 5.0926 -15.4149 2.0
10.51245 2.662867 -13.353066 2.0
-0.04735 1.6786 4.34738 0.0
12.487 5.34335 -21.0854 2.0
-13.3249 1.94915 15.861774 0.0
7.322975 5.886875 -1.307475 0.0
1.3651 4.23095 7.2656 0.0
6.18595 2.8873 -7.2984 0.0
11.43795 4.89265 -23.2766 2.0
-0.907167 2.5515 7.721167 0.0
6.30835 0.898483 7.6475 1.0
4.659817 5.955367 2.8673 0.0
10.26015 5.0835 -14.639199 2.0
-5.96285 -3.4173 4.7097 0.0
6.42195 0.11515 -5.083 0.0
9.6429 -1.22075 10.4643 1.0
7.89417 5.53294 -3.2655 0.0
-9.742017 3.186 17.0861 0.0
5.84555 2.0808 -5.5821 0.0
6.5371 4.4789 -4.49915 0.0
7.46675 -0.5828 8.6559 1.0
7.73255 3.74222 9.33158 1.0
11.38925 4.354 -11.4024 2.0
11.71645 2.1276 -13.5266 2.0
4.87385 2.82 -2.9109 0.0
14.490931 4.29568 -30.311718 2.0
10.501925 4.36105 -6.098 1.0
8.89225 1.983567 -4.5046 1.0
10.52883 4.1107 -19.2549 2.0
12.02655 3.4144 -22.6409 2.0
8.43815 5.9877 -1.1382 0.0
-9.18505 3.8019 20.6455 0.0
4.521567 2.287067 -3.295083 0.0
12.3325 3.4478 -18.047501 2.0
13.47995 3.9944 -21.548599 2.0
0.683385 -3.862253 -0.3525 0.0
-11.121036 1.342314 12.690557 0.0
6.82945 3.3305 6.8764 1.0
-7.33135 3.3931 19.652399 0.0
9.65775 3.730043 4.6711 1.0
-7.09315 3.16275 14.363083 0.0
10.53683 2.08388 14.162981 1.0
-2.927267 -3.717567 2.2505 0.0
3.505507 2.836157 0.3004 0.0
11.78935 -6.503 33.0886 1.0
10.51715 1.111345 1.07 1.0
-6.297564 0.297814 8.093729 0.0
10.12205 4.875933 -16.548567 2.0
9.62795 0.1139 2.7378 1.0
4.99735 -1.1166 15.2162 1.0
-12.19845 1.3954 13.654 0.0
9.45725 -2.0914 13.9795 1.0
-14.81465 1.2277 16.3871 0.0
-5.487183 3.020034 14.137199 0.0
2.38625 3.2493 2.5887 0.0
8.69975 -2.8224 16.744301 1.0
9.82225 0.0163 4.9753 1.0
5.11383 -0.90932 13.481359 1.0
-3.71487 0.32812 6.25086 0.0
14.689883 4.051267 -32.679897 2.0
9.50551 4.35278 -1.292 1.0
8.29747 -3.27874 19.270781 1.0
6.79985 0.3817 -6.0108 0.0
14.114901 3.5891 -31.09845 2.0
10.97775 3.5647 -5.4626 1.0
14.21745 6.2487 -28.455099 2.0
4.21065 0.8079 -1.982 0.0
9.88605 2.02142 -5.25334 1.0
5.57935 3.1463 -6.0712 0.0
-0.72771 -0.67506 2.6626 0.0
11.283351 5.314267 -14.861835 2.0
-5.8778 3.310925 18.284752 0.0
9.70735 4.218 -17.0861 2.0
8.5133 5.3605 -5.0753 0.0
4.23395 -2.89055 -2.36485 0.0
11.27137 2.8901 -7.09464 1.0
6.12623 5.8544 -0.11892 0.0
-4.252075 -2.2952 3.975925 0.0
0.14195 3.6592 8.9765 0.0
-6.507275 2.256725 12.100349 0.0
10.915174 2.75925 -8.57895 1.0
10.30485 1.2504 -10.5979 2.0
9.280217 2.120567 -6.0689 0.0
-0.27795 4.4209 12.9767 0.0
15.05735 4.507333 -32.733734 2.0
13.9412 3.34705 -26.377651 2.0
12.72855 4.8848 -33.613998 2.0
-5.889383 2.115867 11.4717 0.0
12.70865 5.794 -25.0933 2.0
1.59465 5.4076 10.2801 0.0
7.55155 1.948667 -8.345166 0.0
9.501817 -1.909933 14.889567 1.0
-1.264425 3.4289 11.780975 0.0
9.11055 -5.1455 26.3587 1.0
12.06475 5.5656 -28.179899 2.0
-11.14435 3.19255 18.293652 0.0
-12.54655 0.9829 12.8062 0.0
8.23635 -3.2143 18.447599 1.0
5.879 0.6979 -4.841125 0.0
2.1338 5.84035 9.58875 0.0
8.128799 -0.31505 6.95635 1.0
4.16445 2.276566 -2.6547 0.0
8.273517 0.3154 -7.524734 0.0
-7.32815 0.1462 8.646466 0.0
-1.69955 1.036738 5.914762 0.0
-9.10217 -0.36356 8.874741 0.0
10.8857 5.2144 -17.960152 2.0
9.96125 5.0902 -4.8167 1.0
11.759501 -3.3056 25.4111 1.0
-9.531151 3.552025 18.331799 0.0
-8.127151 3.51 19.077566 0.0
7.65805 1.3506 1.1933 1.0
4.444325 1.8992 -2.334625 0.0
7.1082 3.63565 4.69405 1.0
8.55795 5.3001 -6.5243 0.0
-9.42675 4.018 22.8962 0.0
7.31505 -2.3182 15.543727 1.0
-1.16415 0.7608 5.11925 0.0
10.43365 5.1084 -17.349199 2.0
10.85655 2.418 1.8916 1.0
14.666417 4.375066 -31.764166 2.0
8.98255 3.1342 15.4044 1.0
9.087 3.76615 6.271 1.0
11.74525 2.7008 -15.3787 2.0
4.935717 5.270567 0.481167 0.0
2.81695 5.356 7.098 0.0
8.49569 -4.93942 24.8832 1.0
1.8374 3.1247 4.6249 0.0
9.46615 5.10485 -8.904699 0.0
10.75375 2.6934 0.234467 1.0
9.870917 -5.737833 28.277498 1.0
13.49731 5.21702 -22.715099 2.0
-6.09779 2.50278 12.907539 0.0
13.88595 4.0199 -32.03265 2.0
2.891916 -0.2818 -0.464033 0.0
10.12475 -0.05385 6.106525 1.0
-7.124383 -2.768567 5.5866 0.0
10.00305 5.2887 -9.7265 2.0
10.665569 3.67004 -1.89988 1.0
4.55275 3.9299 -0.536233 0.0
11.70705 -5.6913 30.2777 1.0
13.930363 4.095975 -23.709427 2.0
11.11725 3.539825 -17.729975 2.0
-14.98105 1.56095 17.446051 0.0
-3.70315 3.521084 16.519602 0.0
11.527566 3.705933 -10.648533 2.0
4.86135 -1.5733 -2.7979 0.0
-12.704316 2.9616 18.483566 0.0
12.7363 -2.91915 27.490913 1.0
4.47855 5.493475 2.119375 0.0
11.21035 3.66935 -7.53215 1.0
7.38805 2.3442 -1.2156 1.0
8.69645 -1.2785 9.7945 1.0
-4.336783 1.2665 7.716667 0.0
11.58185 5.4223 -25.667299 2.0
11.88525 3.366 -17.1686 2.0
-1.1901 -1.08755 2.614 0.0
-4.00005 -0.7489 4.698 0.0
11.0574 1.70315 9.50005 1.0
-2.19485 -4.1982 1.9058 0.0
11.103575 1.32785 10.90555 1.0
8.60965 3.3548 14.0635 1.0
10.088917 -1.6757 15.162601 1.0
8.84115 2.4294 -6.4677 0.0
9.263034 3.722217 -14.07545 2.0
12.460251 5.31425 -28.414051 2.0
7.498325 3.8185 4.33545 1.0
-11.83675 3.3571 19.972401 0.0
8.690624 3.72865 8.676374 1.0
7.672884 -3.92955 22.878832 1.0
-14.60245 1.3549 14.6043 0.0
4.4872 0.304425 -2.7029 0.0
12.488174 5.61575 -23.848598 2.0
3.523916 2.299567 -0.5143 0.0
11.11005 3.3636 -16.51075 2.0
-4.69265 3.4632 17.061655 0.0
6.893283 -1.089989 10.710656 1.0
13.177549 4.0824 -20.814651 2.0
-11.698737 3.173487 18.480186 0.0
3.98755 6.5009 5.1751 0.0
8.34275 3.6486 13.1246 1.0
7.50095 -2.45646 16.122259 1.0
-0.6898 2.1842 5.21305 0.0
1.697426 -3.662424 -0.886772 0.0
7.57405 -4.7049 26.042801 1.0
0.56455 0.4494 2.5728 0.0
14.0882 4.2857 -25.05405 2.0
11.171471 0.49084 14.34202 1.0
1.16655 2.4121 3.2808 0.0
-9.93085 -0.201 9.1118 0.0
5.5713 2.51175 -5.4558 0.0
-12.081229 0.6291 11.1257 0.0
7.502825 -3.65225 21.124325 1.0
7.71099 -1.13524 -5.74954 0.0
4.44475 6.33145 4.3572 0.0
14.03695 5.690028 -25.093584 2.0
-1.85715 1.89608 7.48306 0.0
10.02435 5.3495 -8.7415 2.0
3.948816 -3.6592 -2.656333 0.0
8.312675 3.7649 11.073425 1.0
-3.898983 3.349033 15.551533 0.0
11.10355 0.662167 13.336433 1.0
13.69475 6.44365 -30.140699 2.0
10.908411 1.07468 6.3661 1.0
-8.20965 3.2292 15.323 0.0
6.16905 2.6386 8.3805 1.0
11.267836 -1.124871 17.6686 1.0
-1.28455 3.55165 13.6915 0.0
-4.08176 3.661527 17.685909 0.0
12.62535 -2.4566 26.7589 1.0
2.132525 5.427825 8.539075 0.0
11.679217 -3.899867 26.474068 1.0
-1.32643 0.358 4.476039 0.0
-2.08677 2.95152 12.3276 0.0
-12.35765 -0.0288 10.6908 0.0
10.70045 -1.078733 14.5542 1.0
8.41085 0.763 0.6185 1.0
10.113589 3.15584 -14.876379 2.0
7.24305 4.516267 -5.529234 0.0
9.526549 2.295333 -11.530334 2.0
3.0288 6.55885 8.89925 0.0
6.677325 3.692537 -7.497938 0.0
9.68655 -0.6687 7.12145 1.0
-0.04655 3.63055 10.706575 0.0
11.043918 -5.445934 28.103867 1.0
6.46133 2.08704 -6.6535 0.0
11.19455 2.6734 -9.3792 1.0
5.46215 4.300583 -2.329033 0.0
8.089149 -1.6225 11.737133 1.0
6.87802 -1.69339 12.89802 1.0
10.31839 2.44782 -8.68412 2.0
4.69585 5.652533 1.5407 0.0
6.23995 1.3383 7.2033 1.0
4.2246 5.524 2.88165 0.0
10.91965 -4.1183 25.22175 1.0
-7.911676 3.41395 16.117399 0.0
1.20385 5.7406 12.722 0.0
11.243617 2.447833 -5.273833 1.0
9.5882 -2.776 18.91275 1.0
7.4771 1.67475 -7.69375 0.0
11.72161 -1.31244 21.523142 1.0
-4.34803 4.46492 20.443899 0.0
5.726408 0.313167 10.669358 1.0
10.11335 -2.3653 18.207899 1.0
12.0793 3.25635 -16.04245 2.0
7.6878 -1.8601 12.7463 1.0
9.54415 -5.1402 29.3009 1.0
14.467601 6.281849 -31.309151 2.0
10.57265 3.13715 1.645475 1.0
-7.300073 3.262433 15.51088 0.0
9.550084 3.571083 7.304033 1.0
7.3704 3.25815 -10.1026 0.0
3.30015 2.67842 -1.12088 0.0
9.69215 -3.7641 21.2827 1.0
7.535284 3.825433 3.722267 1.0
13.28255 4.4473 -18.891399 2.0
10.765737 1.684086 -0.3018 1.0
-9.99785 0.99 11.4543 0.0
-2.24055 3.41706 13.70596 0.0
0.90305 3.27366 6.90964 0.0
-1.55975 3.3302 13.091 0.0
-9.49975 -1.384083 7.914067 0.0
10.33105 3.319485 4.482757 1.0
-4.26655 2.649057 11.7293 0.0
11.87905 -5.88255 30.9286 1.0
-2.70365 2.4177 8.684466 0.0
10.7015 1.720075 16.669462 1.0
14.19835 3.6252 -30.417999 2.0
10.750615 2.09955 9.318733 1.0
4.1472 3.08825 -1.71315 0.0
10.61835 4.2027 -5.5812 1.0
10.308017 5.041334 -18.487234 2.0
-13.723024 1.54245 14.501075 0.0
14.47915 4.3132 -27.718855 2.0
9.30135 1.27705 -1.7708 1.0
11.710525 4.9091 -12.951324 2.0
-0.88325 1.4409 5.6915 0.0
11.613383 -3.859167 25.722265 1.0
-7.888963 1.851367 11.131021 0.0
-9.66415 3.5997 21.281601 0.0
10.919975 4.54775 -9.949675 2.0
-0.908733 2.546633 8.6874 0.0
8.74265 -1.5982 11.8848 1.0
-1.40295 -1.7905 2.1556 0.0
-7.496675 -0.67635 7.155175 0.0
13.76395 4.4865 -21.510099 2.0
-6.522475 1.7762 10.477501 0.0
8.187599 2.7254 -10.464701 0.0
3.64515 4.9572 3.46165 0.0
6.9261 3.0884 -8.9288 0.0
3.92755 3.2236 -0.8685 0.0
8.896601 -3.795375 21.949699 1.0
3.867783 -0.6959 -1.7273 0.0
12.00595 2.9596 -13.8671 2.0
11.7057 2.88625 -17.94315 2.0
12.530001 3.231 -20.272999 2.0
11.99805 5.5649 -27.5702 2.0
-0.298363 -3.532088 0.538188 0.0
7.5628 0.134 -6.67755 0.0
3.84519 1.71234 -1.87422 0.0
8.04665 1.0659 0.3216 1.0
12.355384 5.89 -26.739134 2.0
5.05275 3.3973 -2.0925 0.0
13.0751 6.15675 -29.70145 2.0
-6.75045 3.5714 21.0219 0.0
-1.477488 4.062387 15.704514 0.0
11.41715 -2.052 20.9415 1.0
11.47425 2.7943 -13.1254 2.0
10.59545 1.0159 3.5696 1.0
7.77635 1.7991 -0.9102 1.0
7.103167 4.4728 -6.130416 0.0
13.55085 4.4878 -20.176901 2.0
11.457283 2.948 -14.874733 2.0
10.663126 2.08705 19.102749 1.0
-12.439549 2.824867 16.708868 0.0
10.312651 2.78165 -14.299299 2.0
-4.704565 0.932743 7.700143 0.0
6.95815 4.8289 -4.47475 0.0
11.9498 -4.326325 27.499149 1.0
4.81675 1.3885 -2.9918 0.0
1.23685 -2.278367 0.2279 0.0
10.92103 1.10442 7.94328 1.0
14.59385 5.3932 -28.751101 2.0
10.1301 0.34965 -9.539749 2.0
8.517549 4.678975 -8.9175 0.0
8.50126 -4.076429 22.742779 1.0
1.7585 1.88735 1.6092 0.0
-7.49313 2.87717 14.72451 0.0
-0.68645 4.8783 16.6364 0.0
10.940165 2.488786 -3.088857 1.0
5.1492 1.71715 -3.663 0.0
1.15025 2.2141 2.6053 0.0
0.116017 3.309366 8.311333 0.0
11.72705 3.24825 -12.9077 2.0
11.47581 0.09668 18.8582 1.0
11.30305 4.7273 -25.346001 2.0
-11.500584 -0.228667 9.824834 0.0
-4.80215 -1.4962 4.3809 0.0
0.89735 2.698871 4.724929 0.0
7.8873 -3.743475 20.693924 1.0
10.913774 1.293825 8.862525 1.0
7.437483 -4.313967 25.342934 1.0
10.860083 -0.299522 12.070133 1.0
10.839482 1.1124 -11.359933 2.0
9.72493 2.94458 12.9242 1.0
7.71165 3.911033 -9.929167 0.0
10.681749 -1.8979 17.43935 1.0
12.778518 3.863567 -18.651934 2.0
10.08821 4.1117 -0.69959 1.0
11.097283 -3.0774 22.684599 1.0
12.1525 5.34795 -19.82225 2.0
-10.295025 3.251425 16.578701 0.0
-7.311767 2.098784 11.120749 0.0
5.72895 -1.6001 17.9583 1.0
2.91645 2.0927 -0.3721 0.0
-8.106959 3.7313 21.868242 0.0
4.675693 4.533828 0.478214 0.0
0.877033 4.2852 9.061749 0.0
10.098275 4.3666 -3.15265 1.0
-5.10087 1.44663 9.152259 0.0
13.68585 3.94245 -29.870449 2.0
9.49785 -2.3495 16.933599 1.0
8.70425 -3.01135 17.657351 1.0
8.254684 2.320566 -4.456666 0.0
14.092617 6.6246 -31.161932 2.0
3.35645 6.9943 7.5968 0.0
6.7764 -0.01385 7.4739 1.0
8.09475 -2.1735 14.0685 1.0
2.500617 -0.2496 0.138133 0.0
5.095763 3.91975 -1.469175 0.0
14.737269 4.060121 -33.49538 2.0
4.46755 1.9023 -2.99245 0.0
-4.16175 -0.4911 5.1264 0.0
-8.558784 -2.248433 6.842267 0.0
9.37865 2.607 -8.7928 2.0
-5.092267 -1.4897 5.269033 0.0
9.73645 3.5943 5.5489 1.0
11.0673 1.4884 10.0821 1.0
1.03195 4.37015 10.05795 0.0
7.719817 4.8576 -6.324566 0.0
9.11725 0.495 1.1416 1.0
11.92475 -6.847375 32.262974 1.0
4.65945 -2.6551 -2.5942 0.0
10.2981 3.96455 -18.0979 2.0
12.02265 5.2103 -16.658001 2.0
13.37485 3.1855 -25.4282 2.0
-0.69675 4.57995 15.96755 0.0
-3.48908 4.31635 19.27496 0.0
6.38455 -2.5894 -4.6231 0.0
-10.719825 2.766725 15.288325 0.0
-8.89665 -0.93655 7.84435 0.0
2.3961 2.0689 0.49095 0.0
9.131812 1.553938 -2.914285 1.0
4.55345 2.6509 -2.2889 0.0
10.33815 0.709767 -10.294133 2.0
12.50235 4.726 -28.1987 2.0
9.67705 3.04828 12.27104 1.0
8.094964 -1.133414 9.114885 1.0
2.0832 0.96235 1.268175 0.0
10.914226 -3.483175 23.5224 1.0
3.757083 0.917867 -1.6283 0.0
9.08681 -1.34486 11.32658 1.0
-2.336675 2.389925 9.866699 0.0
14.16625 4.91885 -25.9732 2.0
-9.088961 3.579745 18.679731 0.0
2.56785 4.7442 4.9572 0.0
-7.557716 0.5569 9.252933 0.0
8.70925 4.4778 -11.1058 0.0
-12.51115 3.2839 19.9487 0.0
10.93065 2.2141 20.946899 1.0
9.494483 3.922756 3.686078 1.0
-0.6595 3.05685 10.17065 0.0
9.135349 2.560575 -11.705126 2.0
0.0993 2.282075 4.73055 0.0
13.884864 5.8811 -24.533157 2.0
10.3088 3.527384 3.316917 1.0
9.80985 1.663 -10.8541 2.0
14.046975 5.138475 -25.108799 2.0
9.79965 2.8969 17.873199 1.0
11.7184 3.8109 -20.612301 2.0
5.893806 5.717678 0.295811 0.0
10.91405 2.2641 -10.4294 2.0
8.4534 4.1818 -0.94345 1.0
12.19975 -0.9868 24.751301 1.0
11.0733 2.1334 -12.6617 2.0
9.69195 4.4174 -0.3595 1.0
10.95995 2.4809 7.1637 1.0
5.339475 6.6702 2.4884 0.0
15.16285 4.843 -32.395302 2.0
12.19273 -0.49654 24.70154 1.0
10.7068 0.8934 -10.9181 2.0
1.3037 -0.2636 1.1439 0.0
-7.514791 -1.68536 6.873939 0.0
7.10045 3.0163 0.6198 1.0
-6.68475 3.011017 13.723599 0.0
13.039483 5.6995 -32.782429 2.0
10.135325 2.949675 9.910225 1.0
5.97205 -1.6998 18.9881 1.0
-4.09725 2.211966 10.538033 0.0
1.3594 5.46865 10.9317 0.0
-10.671007 3.0884 16.885443 0.0
0.73208 5.28263 12.68927 0.0
-15.26575 2.8793 20.3873 0.0
7.24885 2.8798 0.1328 1.0
8.687383 5.3226 -5.9213 0.0
9.60155 3.8663 -14.9712 2.0
9.698 -0.41045 6.68835 1.0
-6.49058 3.29128 16.31287 0.0
-10.845749 3.51184 19.721781 0.0
10.6637 2.68085 6.47105 1.0
-8.101221 -1.095343 7.679129 0.0
10.7677 4.52395 -22.08865 2.0
12.344774 3.91565 -16.458626 2.0
2.45245 1.0827 0.493525 0.0
6.46875 3.6944 -6.856751 0.0
1.81535 5.7813 11.2026 0.0
4.20325 6.9345 6.3057 0.0
12.68235 -7.4618 33.556702 1.0
11.076934 1.475083 19.690132 1.0
4.222317 4.3574 1.263933 0.0
10.753275 1.505837 2.326025 1.0
12.959499 -5.71215 32.107597 1.0
-0.44445 1.4196 4.7988 0.0
-7.77175 -0.6921 8.0222 0.0
12.1608 3.9983 -22.9622 2.0
9.55445 -0.2742 5.9556 1.0
-15.33355 1.758 18.948601 0.0
8.09099 0.5299 3.07084 1.0
8.6713 -0.29865 6.6939 1.0
9.10125 0.663725 0.12525 1.0
10.672536 1.904557 18.30332 1.0
-5.87411 1.89128 10.532021 0.0
12.3486 3.71875 -23.9041 2.0
10.080676 3.864563 2.0918 1.0
5.31603 -1.89654 -3.45286 0.0
8.694884 -5.262233 25.904533 1.0
12.040382 4.505933 -14.996567 2.0
11.60765 3.4281 -11.1674 2.0
5.35585 6.3214 1.5943 0.0
13.0532 5.510199 -33.618401 2.0
-3.79535 -3.8511 2.8491 0.0
7.289 4.1075 -7.18825 0.0
9.21615 -1.1561 9.562 1.0
9.881317 5.426733 -6.159667 0.0
11.948825 -0.906775 23.21315 1.0
0.22085 2.1269 5.2333 0.0
10.2881 -0.27955 9.340651 1.0
-11.894733 3.2333 19.069984 0.0
5.80955 1.3503 10.0437 1.0
-5.292587 -0.91685 5.925963 0.0
11.1304 0.9057 14.6986 1.0
1.914561 -2.840911 -0.471022 0.0
8.502878 -2.123728 13.744658 1.0
8.87925 4.270167 0.074833 1.0
7.918183 -0.744467 8.713883 1.0
14.16615 4.776 -23.315599 2.0
10.282614 2.694945 11.8857 1.0
13.537084 3.3246 -24.878401 2.0
6.70485 -0.02624 8.1083 1.0
4.05705 0.082 -1.7686 0.0
12.50621 5.29474 -28.938343 2.0
12.98575 -1.9274 27.3678 1.0
-15.2938 2.43295 18.92205 0.0
12.60925 5.857 -31.4708 2.0
3.56195 1.7305 -0.8235 0.0
12.33635 -2.512783 25.905167 1.0
10.146601 1.26625 -1.8836 1.0
8.79685 -2.2781 15.3967 1.0
12.4916 4.2631 -26.030651 2.0
13.48455 -4.08495 30.8361 1.0
-0.19935 -4.286 0.4719 0.0
-3.2715 2.41905 8.96455 0.0
10.889299 2.221925 -6.1358 1.0
15.2351 5.5104 -31.11655 2.0
8.506201 4.7607 -7.92645 0.0
7.868275 3.6744 -10.754274 0.0
8.79105 -4.9877 27.6954 1.0
-3.470317 -0.0901 4.9112 0.0
9.101829 -4.57538 24.29298 1.0
12.85935 3.67335 -25.2824 2.0
-2.10165 2.73376 10.284861 0.0
13.0532 4.0598 -28.5371 2.0
-12.665684 2.27695 15.488782 0.0
14.712017 5.533867 -28.129433 2.0
12.924324 4.527525 -32.085026 2.0
10.10885 1.8998 -5.863 1.0
7.84245 3.8616 -1.4869 1.0
-2.91679 0.45652 5.51234 0.0
-5.700836 2.4379 12.516657 0.0
5.1222 3.10085 -4.872325 0.0
10.721225 2.68755 -10.277025 2.0
11.520484 5.2741 -17.333132 2.0
-0.87725 3.264733 11.068833 0.0
6.55675 1.2218 4.2276 1.0
8.731751 -1.26845 10.7262 1.0
-13.900935 1.935871 15.907599 0.0
-8.97775 3.5198 21.605301 0.0
-1.529417 4.341033 16.266401 0.0
-8.890883 2.6971 14.099967 0.0
11.944799 3.50555 -15.50345 2.0
11.557672 -2.318143 22.474695 1.0
-9.16675 2.5916 13.6172 0.0
-0.889194 -3.282078 1.108159 0.0
5.75715 3.4845 -5.29945 0.0
8.716817 1.912467 -10.046166 2.0
3.5892 1.69365 -1.40735 0.0
9.77575 4.8559 -14.2508 2.0
8.54895 -0.373 5.9214 1.0
11.636849 5.093733 -12.502067 2.0
-14.19405 0.883 14.3878 0.0
8.085899 -0.0775 -7.0694 0.0
0.531067 1.7125 3.500617 0.0
5.93115 4.5445 -3.3437 0.0
1.79285 5.0286 8.315 0.0
11.1145 4.48675 -10.729075 2.0
-7.110336 3.889086 21.713156 0.0
11.62685 3.1619 -20.1549 2.0
11.00115 1.442 15.9888 1.0
-8.57415 0.1374 8.8564 0.0
5.724475 4.880125 -1.4754 0.0
12.50541 5.6745 -24.498419 2.0
11.70555 2.078 -12.5752 2.0
10.698514 2.289918 10.53359 1.0
10.3287 5.1167 -13.678249 2.0
10.79215 4.5154 -9.0168 2.0
6.58435 -3.0564 21.685101 1.0
5.96005 2.7635 -6.42295 0.0
2.442133 6.4969 10.279833 0.0
10.8703 -5.90795 29.0506 1.0
3.7484 2.31365 -1.859675 0.0
5.42175 6.7971 3.0701 0.0
-6.4416 3.6155 19.451801 0.0
-2.28531 2.31886 7.622481 0.0
12.259483 4.659633 -26.918533 2.0
-5.30899 2.65674 11.69734 0.0
10.677867 3.4933 -0.516783 1.0
12.04405 3.4074 -13.2267 2.0
5.89645 2.1011 9.5642 1.0
12.2633 4.90745 -29.71875 2.0
2.780075 -3.530075 -1.637 0.0
-12.08765 0.324333 10.3741 0.0
-7.02965 2.3933 12.7367 0.0
9.05805 0.8218 -8.875 2.0
10.090075 2.3429 -7.8752 2.0
-10.93045 3.5952 20.474251 0.0
12.30115 3.5288 -18.685499 2.0
4.503825 7.0542 4.75215 0.0
3.46739 5.7216 5.67068 0.0
6.00595 1.0183 8.883 1.0
-11.925951 3.3392 20.548275 0.0
9.11265 -3.03 18.034599 1.0
8.708151 -2.15872 14.53344 1.0
5.490106 -0.894322 13.078312 1.0
11.25545 3.8153 -19.725899 2.0
11.60425 2.3868 -14.6481 2.0
11.15475 1.9937 7.931 1.0
13.485217 6.116034 -25.905998 2.0
14.117588 3.49825 -23.105499 2.0
-7.71015 3.752767 21.500883 0.0
-3.07495 3.2051 13.7494 0.0
14.88071 6.06396 -32.653141 2.0
0.70653 2.71406 5.67328 0.0
10.876776 4.302275 -20.535725 2.0
10.35515 5.1638 -6.8629 0.0
-0.698717 -1.899444 1.7061 0.0
9.641001 -0.83675 8.73485 1.0
-5.35565 -1.0971 5.3329 0.0
11.702029 5.50002 -24.69128 2.0
-0.05325 0.6383 3.3765 0.0
8.517 0.47555 2.7006 1.0
-8.90285 4.08403 23.087391 0.0
12.48885 6.0567 -25.48315 2.0
11.33255 4.0324 -22.870701 2.0
7.8653 -3.95485 21.708401 1.0
5.52884 -1.27727 13.8921 1.0
9.3636 -1.5785 12.5284 1.0
14.064875 3.5341 -27.469975 2.0
11.051717 4.6911 -21.541933 2.0
-8.481221 3.653372 18.11783 0.0
-4.30085 3.461037 16.705376 0.0
11.43689 -1.09994 18.908819 1.0
-5.07465 2.9625 15.272326 0.0
-3.0779 2.610875 10.495012 0.0
-4.9079 3.0384 14.097301 0.0
-5.1705 4.3379 21.125999 0.0
9.77025 0.5835 -0.1281 1.0
-5.49 3.583625 19.861774 0.0
-14.335 1.948275 17.09775 0.0
-1.27615 1.649633 6.464667 0.0
11.083071 -4.47754 26.302439 1.0
-4.267875 3.502325 18.121151 0.0
6.86665 0.474 6.0719 1.0
-11.51355 0.89354 12.09136 0.0
-6.56905 1.8344 9.9869 0.0
5.869717 -0.507933 -4.351634 0.0
9.31955 5.111567 -8.279433 0.0
10.58845 2.6093 -9.6436 2.0
11.298722 1.073286 20.488443 1.0
-4.689755 -0.523623 5.915041 0.0
10.710716 2.977166 -15.7293 2.0
11.75555 -4.0479 26.916651 1.0
-6.346716 0.7631 8.662233 0.0
-7.868273 3.919111 22.288353 0.0
3.02035 1.4707 -0.3955 0.0
10.59245 4.9555 -20.8867 2.0
10.61955 2.0745 17.4345 1.0
12.667574 4.48065 -28.967825 2.0
10.70683 1.08857 3.11606 1.0
10.0843 2.66849 16.894569 1.0
7.302075 -1.29635 10.82745 1.0
0.08875 5.6088 14.8047 0.0
8.320351 3.88715 -10.027901 0.0
0.677738 4.111088 10.27775 0.0
-13.14235 2.1892 16.2253 0.0
14.015065 3.534167 -24.278183 2.0
7.489517 -3.237333 19.088699 1.0
-3.61365 -1.5547 3.9335 0.0
-4.69949 2.67612 13.317299 0.0
-4.881983 3.1433 16.100433 0.0
-4.918438 1.914162 9.886549 0.0
7.158071 3.62406 3.0792 1.0
6.929983 4.886766 -3.27345 0.0
-5.683559 -2.527886 4.927318 0.0
-14.858951 1.639933 15.913333 0.0
12.074301 3.13795 -20.506351 2.0
-3.95525 4.6068 20.086599 0.0
9.46815 4.6906 -4.0897 1.0
6.9238 -3.05295 19.722801 1.0
-10.478175 3.574575 22.070425 0.0
5.9329 -1.67625 17.111851 1.0
2.88935 -4.1227 -1.9586 0.0
6.1874 -0.46575 10.5431 1.0
-11.492463 0.512937 11.287312 0.0
11.094351 3.75415 -18.91585 2.0
-3.48745 0.4694 5.6973 0.0
11.6686 3.708 -11.65125 2.0
-1.4908 -0.14265 3.489275 0.0
-7.297845 2.669813 13.082052 0.0
11.51925 5.3977 -20.799999 2.0
1.93675 2.63356 2.13848 0.0
6.1497 3.5073 -6.326075 0.0
9.19455 4.6792 -12.6026 2.0
6.32437 2.5013 -5.8806 0.0
-8.3479 0.7402 10.0131 0.0
11.79505 5.7208 -20.286301 2.0
5.2373 5.336025 0.870175 0.0
8.684475 0.6603 -8.341725 2.0
11.558875 -0.11145 19.886776 1.0
8.35715 1.6869 -2.0582 1.0
7.88935 0.9702 1.345 1.0
14.0877 4.12995 -33.069603 2.0
11.639324 5.080575 -13.71925 2.0
9.82035 0.7772 -1.253 1.0
6.84795 -3.6122 22.877701 1.0
8.89643 3.91048 5.11076 1.0
12.22965 4.2219 -24.199499 2.0
8.54335 -2.1972 12.6684 1.0
-9.471867 1.950469 12.485499 0.0
9.337383 5.266233 -3.517567 0.0
3.078063 5.516875 6.2875 0.0
8.308393 5.263786 -5.504743 0.0
-2.88865 1.6617 7.5441 0.0
-10.513551 1.50642 12.35956 0.0
10.906525 -6.15055 30.693775 1.0
14.131588 3.890538 -26.488523 2.0
-12.86735 1.719475 14.8866 0.0
12.48795 3.149767 -17.719633 2.0
-8.31359 -0.27352 8.70255 0.0
-14.293517 3.319167 20.476099 0.0
1.89725 6.2518 10.6559 0.0
-0.859483 3.571767 12.707301 0.0
-4.67115 2.2186 10.2637 0.0
10.5653 4.90645 -10.8168 2.0
2.564783 -1.114367 -0.624233 0.0
9.92365 -1.5231 13.9546 1.0
-6.09405 0.4796 7.6241 0.0
7.13355 3.285433 -7.660633 0.0
0.9249 4.8862 10.883434 0.0
4.01825 4.5542 2.0766 0.0
9.085935 -0.0775 -7.477729 2.0
10.06175 1.6381 -11.4491 2.0
6.64585 3.3827 4.0535 1.0
-5.891674 2.697237 13.320688 0.0
9.2715 -3.5665 21.12195 1.0
11.04845 3.457667 -4.151667 1.0
8.08115 2.2053 -3.7985 0.0
2.648575 2.490675 0.342225 0.0
5.20035 -0.3898 12.6771 1.0
11.126379 -1.124586 16.676527 1.0
6.00905 -0.7673 12.042 1.0
11.94655 2.6715 -16.462999 2.0
13.2422 3.8614 -31.5296 2.0
3.20765 4.1295 3.5944 0.0
10.287364 2.502707 12.89208 1.0
8.709283 -0.779967 8.833201 1.0
10.19485 -3.3103 20.7129 1.0
10.55845 -1.3774 15.4559 1.0
10.88155 2.7865 -10.894 2.0
9.83375 0.5501 0.8865 1.0
6.155716 2.861733 -5.5362 0.0
12.133517 5.620567 -18.883766 2.0
8.098184 -2.464717 16.090267 1.0
1.10097 4.89148 10.324019 0.0
9.468599 -4.59535 24.78895 1.0
-11.85425 2.0289 13.9963 0.0
11.8249 5.0558 -15.1167 2.0
7.887675 3.937525 2.5554 1.0
1.88321 3.49342 4.32818 0.0
12.80935 4.8919 -30.500351 2.0
0.102775 4.877512 13.487688 0.0
-10.07405 3.80375 19.451801 0.0
-12.091887 1.087662 12.742064 0.0
3.675417 5.494967 4.078017 0.0
12.923383 3.560767 -23.872499 2.0
-14.48305 1.683475 16.512726 0.0
5.10705 -0.0603 12.0292 1.0
7.63975 0.845575 -7.308225 0.0
3.4724 5.955525 6.517375 0.0
2.302787 4.1072 5.085062 0.0
-0.40815 3.4544 9.5871 0.0
7.40645 2.4611 -8.3323 0.0
10.1497 4.63135 -4.47245 1.0
-14.83395 2.2135 17.7897 0.0
13.28535 5.94168 -25.48502 2.0
10.960175 1.5014 12.905524 1.0
12.135751 -3.3002 26.529427 1.0
13.3132 5.71855 -24.345901 2.0
12.1172 3.925875 -22.358101 2.0
-15.32095 1.7338 17.102749 0.0
-9.49165 2.283275 13.076601 0.0
9.1397 0.27105 2.3329 1.0
9.75505 -1.558733 13.336133 1.0
-0.03195 -0.9449 1.7566 0.0
10.82735 3.3263 -1.523 1.0
-11.91295 2.8606 16.122799 0.0
3.288216 -0.512183 -1.077067 0.0
10.84155 1.9277 -13.0724 2.0
1.44377 4.334 8.073099 0.0
8.0376 4.1606 -9.1342 0.0
9.84215 2.859 15.312439 1.0
-2.75055 1.762 8.2864 0.0
-3.530136 1.1086 7.697158 0.0
9.96485 2.4049 -11.966 2.0
11.66135 3.13745 -15.5303 2.0
-12.90286 2.89497 17.545481 0.0
-5.56515 1.8013 9.5941 0.0
10.7014 -3.8736 23.884501 1.0
6.59295 2.736 7.4539 1.0
6.3066 -1.9231 19.905449 1.0
10.715561 0.274156 8.696311 1.0
10.63205 -0.2116 9.672899 1.0
6.269959 0.096 9.291244 1.0
12.963493 -3.3483 28.484058 1.0
-10.04575 -0.576 8.6955 0.0
1.494983 3.503633 5.889117 0.0
-13.696776 2.111873 16.713329 0.0
-8.43135 2.4115 11.9194 0.0
-1.317183 2.887067 9.711484 0.0
-3.087617 -2.3149 3.127433 0.0
1.14885 3.2314 5.5159 0.0
11.131133 0.9308 16.292616 1.0
6.05176 -1.913657 18.105326 1.0
7.646817 0.655767 3.475633 1.0
1.43325 -0.8293 0.5737 0.0
12.88845 -3.7806 29.065901 1.0
8.278983 1.935767 -2.8728 0.0
11.84815 0.6757 23.235399 1.0
6.31055 -2.100734 17.166033 1.0
6.71425 -1.118044 -4.869656 0.0
-11.299293 3.110343 17.525486 0.0
10.896283 1.2901 5.5256 1.0
10.496025 4.28965 -20.067776 2.0
-8.68346 -1.734667 7.319723 0.0
9.90665 2.2203 -6.1301 1.0
10.23425 4.27735 -17.371349 2.0
10.27075 1.29875 0.30895 1.0
12.29525 5.8161 -29.298851 2.0
9.28131 -2.10634 15.326779 1.0
-12.710625 1.269025 13.341724 0.0
6.253972 -1.759778 15.29089 1.0
11.62245 -6.8022 31.721901 1.0
11.489917 3.140467 -12.099133 2.0
7.553275 3.3445 -8.490425 0.0
6.6862 -1.97605 14.918276 1.0
6.99145 -2.8986 22.275999 1.0
10.70707 4.36772 -7.29126 1.0
2.0412 5.17065 9.21175 0.0
-9.87645 -1.3277 7.6512 0.0
13.99645 3.44825 -25.686951 2.0
11.117775 0.28975 13.687475 1.0
-3.83525 1.8035 8.6873 0.0
9.893 2.86525 13.695351 1.0
-13.103616 2.716 17.103632 0.0
6.06125 5.4643 -1.0092 0.0
-5.299661 0.504533 7.510278 0.0
0.880025 2.319225 3.695662 0.0
3.09335 -2.493608 -1.325985 0.0
6.18005 5.0708 -2.0135 0.0
8.37015 4.4147 -10.7306 0.0
-11.272634 1.89395 13.668384 0.0
8.59835 4.9347 -9.3259 0.0
11.09435 1.9281 -3.862 1.0
9.99335 -0.9245 10.4147 1.0
-5.53585 0.1217 7.282401 0.0
12.87905 -0.9698 26.6994 1.0
12.50435 -6.507 32.886002 1.0
3.8769 6.338501 6.08485 0.0
11.8232 -0.50575 20.68795 1.0
-3.08982 1.06018 7.28694 0.0
9.47555 3.8797 -15.7183 2.0
14.18285 6.734 -33.4669 2.0
-2.889016 0.681167 6.309634 0.0
11.22845 2.5897 -11.459949 2.0
12.914017 5.482267 -22.910934 2.0
9.0994 -2.309025 16.100599 1.0
10.293195 2.480689 17.297533 1.0
-0.9351 3.50645 11.468216 0.0
-5.04535 -3.6979 3.9216 0.0
11.54465 5.30645 -14.10945 2.0
-0.896423 1.105627 5.291927 0.0
10.282483 -2.267167 17.151133 1.0
-10.722183 3.570133 18.8563 0.0
15.264234 4.74555 -33.294884 2.0
7.95 -0.51345 -6.27055 0.0
9.22325 5.0533 -9.4993 0.0
10.8386 2.14175 -5.34235 1.0
5.1319 4.2584 -0.916725 0.0
11.51465 4.3359 -24.944401 2.0
10.985749 2.691333 -3.635033 1.0
7.99685 3.9694 3.008 1.0
13.319516 -4.931 31.621065 1.0
-2.285272 3.934111 16.105034 0.0
-2.07835 3.4261 14.74885 0.0
10.00565 4.768 -18.0436 2.0
-6.701843 -2.475273 5.706437 0.0
0.46595 3.9824 9.4539 0.0
11.546 2.7801 -10.31995 2.0
2.947017 2.718733 1.107633 0.0
1.898033 0.495283 1.080216 0.0
-8.525708 2.483729 13.065356 0.0
12.29266 5.465134 -21.952467 2.0
11.49505 3.2846 -6.5733 1.0
10.676916 -1.4744 15.924587 1.0
10.838076 1.909325 4.258225 1.0
9.687525 1.86385 -4.486475 1.0
8.4335 4.1703 0.9037 1.0
11.32353 0.27926 16.477421 1.0
-12.082893 2.493157 15.158814 0.0
9.67375 4.7731 -15.7431 2.0
-11.896783 3.2303 17.72785 0.0
-4.07265 1.0243 7.077033 0.0
11.084539 -0.913011 15.893278 1.0
6.56465 -2.8262 21.162048 1.0
-4.486075 0.544 7.115225 0.0
-7.303486 3.891085 22.287258 0.0
10.27575 3.063733 7.945067 1.0
10.306516 4.144367 -2.685717 1.0
2.494606 5.497644 7.861533 0.0
6.277025 -1.718325 14.25905 1.0
9.104301 3.9371 4.703125 1.0
11.74915 4.2304 -25.3468 2.0
-4.124183 1.666233 9.299833 0.0
1.28913 0.3121 1.89518 0.0
-3.3159 2.054925 9.535275 0.0
6.38425 0.9455 6.8172 1.0
12.837235 4.498128 -19.123386 2.0
11.68043 5.36836 -19.469519 2.0
