# .PCD v0.7 - Point Cloud Data file format
VERSION 0.7
FIELDS x y z label
SIZE 4 4 4 4
TYPE F F F U
COUNT 1 1 1 1
WIDTH 1581
HEIGHT 1
VIEWPOINT 0 0 0 1 0 0 0
POINTS 1581
DATA ascii
7.44698 -1.91482 14.90408 2.0
7.1975 1.1976 1.9942 2.0
-13.7451 10.276 17.8398 0.0
14.922791 6.53368 -47.890522 1.0
11.918421 -3.313567 24.510872 2.0
12.96785 -5.87335 32.748047 2.0
9.8953 6.14705 -7.2234 0.0
10.964251 2.13425 10.71025 2.0
9.884959 -2.316759 14.486518 2.0
12.65925 -1.38655 26.429951 2.0
12.714797 -7.892004 32.91991 2.0
9.881685 3.894786 8.490472 2.0
0.3412 8.47565 11.29335 0.0
11.12205 -15.17815 39.845951 2.0
13.902934 4.330545 -35.702789 1.0
11.914326 5.1301 -22.098911 1.0
10.5911 -1.1439 13.2862 2.0
-13.716667 10.070233 16.503401 0.0
10.608933 -0.6299 11.3633 2.0
9.8267 4.6363 -14.3831 1.0
7.097925 -11.2486 33.260948 2.0
-0.87565 3.255275 0.334925 0.0
-9.315599 6.47835 6.9864 0.0
8.7864 1.9719 -6.8098 2.0
11.3323 6.0919 -33.662998 1.0
12.472 5.4332 -27.1926 1.0
13.656072 -11.490715 38.687611 2.0
14.48795 5.9124 -40.331848 1.0
12.81888 5.26614 -44.707142 1.0
-5.07394 1.83824 0.3255 0.0
7.43 6.802 -2.8055 0.0
8.698999 -7.583575 26.0893 2.0
10.098001 4.87305 -16.54685 1.0
5.701883 0.08415 9.710517 2.0
13.228733 -3.675767 29.538866 2.0
8.0347 -0.186 -11.9545 0.0
12.864778 -4.492287 29.534754 2.0
10.983376 2.721875 3.6471 2.0
7.48808 -1.11668 8.67878 2.0
11.302567 5.514133 -25.760065 1.0
8.0893 0.88362 0.08456 2.0
10.29942 -16.11228 40.924896 2.0
12.021399 2.7855 -23.452599 1.0
5.492134 -1.152033 13.672933 2.0
5.714 -3.16535 18.2738 2.0
7.2872 -6.0066 22.689301 2.0
9.290461 -8.77236 28.468302 2.0
10.5984 3.3848 13.0908 2.0
12.0038 5.0348 -39.1679 1.0
14.117 5.3089 -34.480202 1.0
-6.4947 7.243025 10.632475 0.0
-3.413 7.9335 16.372999 0.0
12.30425 5.854033 -41.878681 1.0
0.3885 4.6183 -0.2623 0.0
14.2933 5.3025 -38.3643 1.0
12.3363 3.630967 -32.526264 1.0
-0.6883 0.98285 -2.36125 0.0
-6.301411 1.497078 0.480511 0.0
10.363671 0.6578 0.3252 2.0
13.25895 5.0903 -28.936199 1.0
9.51705 4.2293 -4.693475 2.0
9.3561 3.5908 -16.9452 1.0
2.2543 0.2327 -4.5877 0.0
10.094511 -12.786045 35.861313 2.0
5.1246 -4.0282 19.9529 2.0
7.9098 -0.851125 10.514601 2.0
12.69065 -17.571085 43.220181 2.0
-6.8655 5.3889 5.44095 0.0
-11.473015 9.643014 20.438528 0.0
1.1548 2.2607 -2.6427 0.0
10.46918 4.05072 -4.3353 2.0
14.540939 4.28922 -38.529659 1.0
12.456815 -4.892971 28.687714 2.0
-10.4932 6.3689 6.828 0.0
12.30295 -0.90582 24.335979 2.0
7.114575 -8.134913 27.465986 2.0
8.93792 4.3823 4.71024 2.0
13.024067 -3.093767 28.5077 2.0
11.100499 -13.038199 36.706532 2.0
11.6758 3.64295 -29.311852 1.0
11.711201 -17.813099 43.189003 2.0
8.45695 -0.05255 8.316299 2.0
5.4415 0.8619 9.768 2.0
-7.487849 7.872331 14.09422 0.0
10.440101 4.500866 -26.376831 1.0
10.9692 1.9156 -11.4861 2.0
-11.30179 5.48709 5.84339 0.0
11.179667 2.2828 -3.124933 2.0
6.638 3.5341 9.3989 2.0
6.1498 2.6649 6.7554 2.0
3.706464 4.268964 -4.502881 0.0
3.0692 -2.5637 21.4818 2.0
7.32305 -2.861775 14.321549 2.0
14.8697 4.728733 -47.686234 1.0
7.4399 3.136334 0.725967 2.0
-12.2854 9.5203 19.3342 0.0
10.4186 4.9098 -29.138451 1.0
-0.6048 7.4328 10.7383 0.0
13.708 4.3917 -29.796301 1.0
10.3895 5.5898 -23.6654 1.0
0.520622 6.681089 6.099245 0.0
5.310141 0.69127 10.499471 2.0
6.330149 -2.669967 14.51715 2.0
3.7292 -0.11645 -5.96555 0.0
10.89922 2.7198 -20.095058 1.0
0.114083 7.461334 9.500649 0.0
4.8232 1.08305 12.374001 2.0
8.127601 -1.575167 10.053467 2.0
7.08342 -10.737 32.053398 2.0
5.307813 7.113625 -1.10385 0.0
10.564886 0.763929 -4.475457 2.0
13.094693 -12.697468 38.90094 2.0
7.4278 -0.5918 9.635 2.0
-5.0428 2.8204 1.319733 0.0
-0.697822 1.675833 -1.43045 0.0
10.257066 -19.306 46.496201 2.0
7.421025 -15.163774 41.451248 2.0
8.5074 0.4185 1.6215 2.0
9.75815 -6.584975 24.248774 2.0
4.660254 7.721708 0.904454 0.0
11.373966 4.8791 -34.495232 1.0
8.7541 -10.9655 32.401199 2.0
-0.098933 0.262133 -2.842567 0.0
5.9778 6.6089 -2.8292 0.0
4.9288 -4.81475 22.103451 2.0
6.899125 -1.115 11.51725 2.0
-6.7418 7.34282 11.89162 0.0
3.7272 1.2216 15.1685 2.0
10.735494 1.309033 -3.881192 2.0
-7.561134 7.841667 12.720849 0.0
0.4678 -1.0068 -3.9841 0.0
-10.526825 9.166101 15.279 0.0
7.6998 4.5168 -13.3244 0.0
9.478841 -1.5109 9.13558 2.0
6.2157 2.082567 5.904467 2.0
-7.7809 8.592 20.0126 0.0
11.430375 -3.9041 22.899349 2.0
-12.2963 9.5833 16.7728 0.0
12.063049 4.2428 -35.2509 1.0
10.470774 -8.46049 28.710468 2.0
4.47585 7.969 1.6628 0.0
7.910443 0.100929 3.493986 2.0
0.1597 2.278325 -1.705075 0.0
-15.079972 10.069201 16.328672 0.0
13.8157 3.6965 -34.3512 1.0
3.7347 -7.067734 29.110733 2.0
11.8118 6.1116 -37.902599 1.0
3.93008 8.484759 3.70684 0.0
-2.703886 3.901786 2.297257 0.0
5.297144 1.901822 10.288812 2.0
10.83865 4.63755 -29.7955 1.0
9.8892 4.1682 12.3964 2.0
5.875725 4.3233 -9.457625 0.0
8.96866 -18.028561 44.855598 2.0
6.09898 -2.83854 17.45896 2.0
6.91035 -4.10587 17.906029 2.0
1.3909 5.4041 1.0911 0.0
-2.50104 4.54376 3.43616 0.0
8.309074 -9.089408 28.891619 2.0
-9.31595 5.37295 5.3483 0.0
15.100734 5.4895 -44.584965 1.0
3.490817 7.300434 1.297067 0.0
12.9687 -5.9737 32.045898 2.0
-12.105775 9.338574 13.90615 0.0
8.708066 -0.293433 9.5853 2.0
7.1318 1.9215 1.456733 2.0
5.691959 -0.302154 -7.905161 0.0
14.9068 6.4523 -43.4319 1.0
15.316775 5.895887 -48.141411 1.0
-13.510265 8.157156 10.3278 0.0
5.888712 -5.514845 22.716434 2.0
13.33045 -4.35535 30.6506 2.0
9.712444 0.651178 -1.309322 2.0
1.9644 0.9097 -4.1129 0.0
-6.7351 1.51085 0.99105 0.0
-5.70706 1.88408 0.5949 0.0
10.2919 3.9602 -24.4198 1.0
12.1724 6.1088 -40.062099 1.0
7.6912 2.7217 -12.0228 0.0
12.3198 3.3314 -25.546801 1.0
-14.294016 9.076745 12.871892 0.0
6.328188 3.10085 7.286812 2.0
9.8722 2.2288 -15.5782 1.0
-13.4777 7.0731 7.1833 0.0
3.9452 -6.63655 28.112801 2.0
7.50218 -11.077579 32.525723 2.0
12.7096 -18.455521 44.087158 2.0
14.2681 7.0274 -44.4716 1.0
-3.111969 6.906585 12.294706 0.0
8.3394 2.6817 -6.4697 2.0
-5.100625 8.135151 18.0716 0.0
9.739967 2.115633 -11.573967 2.0
12.170113 -3.919725 26.507776 2.0
11.3241 3.0181 -4.3417 2.0
-13.096951 8.86695 12.237551 0.0
-1.7448 6.7924 10.6042 0.0
11.478299 1.065067 14.512283 2.0
-9.69424 7.8691 9.67276 0.0
9.739938 -1.516962 11.070849 2.0
5.713287 -1.2868 12.468951 2.0
10.719755 0.692138 4.876023 2.0
-3.113433 3.317467 1.015933 0.0
-3.5162 4.7852 4.4628 0.0
10.905 3.314367 -0.289117 2.0
7.917533 2.095683 -2.902117 2.0
11.578 1.5967 20.2449 2.0
12.453199 -2.10014 26.301971 2.0
2.64775 3.92475 -3.119667 0.0
1.62675 4.5809 -0.7845 0.0
11.536034 -16.176468 41.285336 2.0
6.280125 -0.056125 8.061775 2.0
8.074381 6.47532 -3.05222 0.0
4.69902 4.48562 -5.89332 0.0
-10.929217 9.046134 13.545934 0.0
9.9565 4.7388 -23.930401 1.0
11.673301 0.880275 18.831301 2.0
8.900345 -11.90949 34.323196 2.0
9.321632 4.7081 -15.6245 0.0
7.281175 4.281175 -11.093725 0.0
13.708301 5.7352 -35.730659 1.0
3.9894 -3.0029 19.7355 2.0
10.992 5.454 -19.903299 1.0
8.6337 5.36725 -10.85015 0.0
2.343375 6.880425 2.716675 0.0
7.26605 1.29865 -10.937725 0.0
12.2431 4.4207 -37.492699 1.0
-15.07744 9.64842 14.27964 0.0
7.949 2.12425 -6.45295 2.0
11.29364 2.4913 -6.29272 2.0
13.1899 4.7357 -26.255199 1.0
7.2524 -1.6852 13.583 2.0
0.8226 8.4461 9.5867 0.0
11.708229 2.8716 -21.082087 1.0
10.959174 2.518262 8.291312 2.0
-10.486722 9.333857 18.288328 0.0
14.966217 6.327116 -46.904602 1.0
5.890467 0.9134 -8.469983 0.0
1.1209 5.86935 2.696325 0.0
-5.710976 5.728676 6.50137 0.0
13.7139 3.7636 -43.1684 1.0
-9.664067 8.251034 10.5188 0.0
10.489767 4.977467 -17.407934 1.0
13.081246 -7.318731 33.889591 2.0
6.524972 -11.481828 34.34193 2.0
11.0778 5.580767 -30.745432 1.0
9.113722 -2.259293 12.700772 2.0
2.454333 7.185667 3.691367 0.0
-5.5127 4.56638 3.5313 0.0
12.732149 4.1352 -24.18 1.0
2.9734 7.0299 1.6398 0.0
8.0535 4.07865 6.6102 2.0
3.1743 5.0557 -2.4501 0.0
5.14765 1.923483 10.931183 2.0
5.123582 -2.075382 15.708008 2.0
12.890725 -10.092954 35.692368 2.0
12.880084 -8.064866 33.730366 2.0
10.766429 -3.552243 20.284842 2.0
-14.114217 8.2944 10.13705 0.0
9.88974 2.14382 -10.51154 2.0
15.410633 5.107067 -48.328098 1.0
2.9996 4.3274 -4.4451 0.0
6.022133 -4.1611 18.859335 2.0
9.859449 -3.0207 16.5109 2.0
11.37075 2.074 -12.83625 1.0
11.95852 -3.52096 25.26156 2.0
6.866625 -0.853325 10.883 2.0
-1.4695 5.30705 3.8413 0.0
11.143333 2.100633 -1.105967 2.0
6.267607 -12.699979 38.323273 2.0
8.8445 4.09475 -14.961201 0.0
-8.290522 6.22902 6.84992 0.0
10.88485 2.3313 -13.3104 1.0
12.554501 3.5387 -28.5851 1.0
10.8153 4.3024 -32.384701 1.0
6.499809 -2.233846 15.5125 2.0
5.08676 1.0922 11.333341 2.0
-3.523667 3.5817 1.896867 0.0
15.1527 4.1539 -39.002899 1.0
11.8438 1.7523 19.2813 2.0
-8.713187 8.502225 14.0996 0.0
12.329462 -5.4984 28.905237 2.0
10.02895 1.522 -15.57915 1.0
-12.898251 7.90005 9.37345 0.0
-4.7962 4.9552 5.0494 0.0
-1.7878 6.2762 7.9927 0.0
10.979466 1.714733 -6.4197 2.0
4.7498 -1.070333 14.8853 2.0
7.49995 2.506225 -0.8532 2.0
-4.8528 6.039066 7.2547 0.0
10.88343 3.121342 4.721742 2.0
12.096299 5.893066 -36.732403 1.0
8.89736 -5.23232 20.940781 2.0
11.695701 5.511 -24.462799 1.0
11.81195 -2.463 22.5317 2.0
9.901433 2.660683 -16.262518 1.0
4.4528 -9.35295 32.883698 2.0
11.2735 -1.0573 15.0904 2.0
-5.498231 6.110215 7.090508 0.0
2.912657 7.295286 2.498957 0.0
4.498416 -2.73325 18.517467 2.0
12.484967 -2.68924 26.746147 2.0
14.8028 6.3716 -38.529202 1.0
-2.67981 1.8748 -0.47434 0.0
-5.086457 3.6883 2.3203 0.0
14.730038 5.903862 -42.454746 1.0
12.338117 4.102467 -20.691065 1.0
-4.02495 8.0166 17.240749 0.0
10.893544 1.958343 -10.527601 2.0
10.5743 5.439 -26.8979 1.0
6.485575 0.6969 5.75835 2.0
10.1371 5.4812 -21.0895 1.0
11.3269 5.1334 -18.2778 1.0
5.942525 -3.690575 19.699226 2.0
14.106251 4.091617 -43.910599 1.0
-0.3727 8.4449 12.4083 0.0
-9.0878 5.4982 5.934767 0.0
-7.33845 7.02185 9.57635 0.0
-6.5587 4.370666 3.848567 0.0
3.4567 -5.2879 27.0049 2.0
11.849401 -1.686892 21.502533 2.0
7.226667 0.244033 -9.9852 0.0
12.848801 -14.69175 40.391098 2.0
11.065937 1.88505 -5.089263 2.0
10.2375 -7.2234 26.090401 2.0
9.4817 4.220334 1.069067 2.0
9.29308 6.06372 -6.32116 0.0
-2.496689 7.636889 14.728433 0.0
3.890667 -4.122122 22.288578 2.0
-2.895757 7.652871 15.502873 0.0
8.142034 -12.052867 34.660133 2.0
8.518354 -17.298655 43.724277 2.0
-10.92905 4.17775 4.1857 0.0
10.309583 5.69295 -12.685966 0.0
9.900141 4.055327 2.669193 2.0
-9.67975 5.8903 6.16315 0.0
8.304875 -13.6455 37.547813 2.0
4.146433 5.468433 -2.9451 0.0
7.14 0.0862 7.2912 2.0
4.835233 -8.355434 29.906199 2.0
4.264329 -5.098085 24.083698 2.0
3.708714 -3.648128 21.536072 2.0
6.163 1.301275 6.337425 2.0
11.2096 2.3521 -0.0001 2.0
-12.31944 8.56658 11.50078 0.0
10.89266 5.16302 -15.24722 1.0
6.96195 2.961 -11.0598 0.0
10.880792 -19.15004 44.864635 2.0
15.0322 5.7684 -41.428902 1.0
11.498449 4.301175 -15.6919 1.0
-16.099125 9.921637 16.137688 0.0
10.416066 -19.8901 46.2668 2.0
10.7838 5.4331 -32.6432 1.0
7.319011 -3.870222 17.044176 2.0
8.038475 2.493525 -4.121175 2.0
6.687995 -13.686771 39.910294 2.0
4.5372 7.078 -0.52265 0.0
3.3716 0.2642 16.868299 2.0
6.5194 -0.4814 10.487374 2.0
7.703938 -8.835538 28.542027 2.0
10.328533 -6.635067 24.958765 2.0
-3.503583 5.336033 5.320717 0.0
5.5988 -10.8168 34.162601 2.0
7.096292 -6.919677 25.115993 2.0
-11.512729 9.520072 16.291321 0.0
11.3081 4.6289 -36.9655 1.0
12.125399 -2.29905 24.73105 2.0
1.1695 3.853567 -1.098 0.0
13.277901 3.9184 -29.025 1.0
-8.1224 8.0924 17.3529 0.0
11.317471 -9.306735 31.46064 2.0
13.353966 -8.291389 35.690121 2.0
-5.2834 5.69095 6.03205 0.0
-8.900775 4.824575 4.93485 0.0
9.8419 2.8918 -19.290899 1.0
-0.0486 4.2803 0.7911 0.0
6.5077 -0.6649 -8.7577 0.0
5.712313 -0.702613 11.274075 2.0
6.3236 -8.646667 28.728464 2.0
6.3145 4.0586 -10.5534 0.0
10.54455 -20.7377 47.338097 2.0
12.238188 -12.03659 36.491386 2.0
11.87455 3.8137 -31.304649 1.0
11.301015 1.087757 13.312127 2.0
4.2387 0.9359 14.4753 2.0
14.4144 4.3496 -48.1227 1.0
14.83075 6.4929 -44.88105 1.0
11.15122 2.31637 15.264071 2.0
9.9709 -0.3312 6.4259 2.0
7.7931 1.3668 -1.3366 2.0
9.846425 4.025175 5.531962 2.0
4.272691 5.7506 -2.281717 0.0
14.491734 5.475933 -39.485996 1.0
11.32615 -16.6611 41.722198 2.0
10.034233 5.3037 -13.497867 0.0
10.8824 2.3383 11.8002 2.0
9.11435 -14.4243 38.551949 2.0
7.918 -16.48695 42.781998 2.0
9.4156 1.2065 -3.762 2.0
8.909657 4.476214 -16.116072 0.0
-9.889633 8.922234 19.264498 0.0
11.8398 3.5279 -13.92845 1.0
-16.103674 10.254478 17.093866 0.0
-2.47826 5.56816 4.7072 0.0
10.505633 -17.898666 43.270416 2.0
6.2887 0.28214 7.30626 2.0
7.6612 -11.6158 33.6422 2.0
8.3046 4.4181 -15.0273 0.0
13.311819 4.2487 -39.490738 1.0
6.2105 -11.7291 38.1992 2.0
9.6706 -18.1478 45.655701 2.0
6.50705 2.8739 -9.899099 0.0
-3.8863 2.0359 -0.3141 0.0
-1.4823 4.24885 2.3764 0.0
13.06595 6.069 -38.25375 1.0
11.031401 3.688425 -5.740925 2.0
11.46615 0.1196 15.090549 2.0
7.481133 1.9067 -11.468467 0.0
7.2966 6.3531 -4.290367 0.0
12.463551 -3.7042 27.507874 2.0
11.67622 2.71004 -16.51012 1.0
9.06845 4.1926 -2.34255 2.0
8.914961 -3.26009 15.858332 2.0
8.300311 -2.787022 14.230732 2.0
7.1418 2.6964 0.3744 2.0
-11.14445 4.80485 4.96595 0.0
12.2277 4.5211 -17.1952 1.0
12.86825 6.7206 -43.78545 1.0
4.04534 -8.11094 30.809341 2.0
0.146875 7.86485 10.505175 0.0
5.9325 1.71508 7.11156 2.0
9.697671 -10.163422 31.087664 2.0
9.878329 -9.32485 29.693842 2.0
8.164666 1.8959 -12.767433 0.0
10.1245 3.1885 -22.5965 1.0
8.6443 1.177 -2.2257 2.0
11.3554 6.0196 -32.859501 1.0
8.90082 -9.8778 30.282883 2.0
11.760201 4.12985 -33.932899 1.0
5.52662 -10.4574 33.117558 2.0
12.50618 3.46178 -27.320099 1.0
4.0196 -2.3522 18.671 2.0
2.726675 1.493125 -4.52325 0.0
9.707525 4.8884 -19.33095 1.0
2.7816 -1.6388 19.196899 2.0
7.7111 6.18215 -5.1762 0.0
7.2242 -0.4563 -9.8135 0.0
9.28935 -6.070113 22.947075 2.0
5.550234 1.097317 9.093551 2.0
7.143347 -13.648314 38.51228 2.0
11.278183 2.496883 -5.505483 2.0
13.4973 5.4661 -30.4445 1.0
9.5057 4.67445 -17.675251 1.0
3.276467 0.296867 -5.490833 0.0
14.30615 6.876662 -42.317036 1.0
-16.125799 9.1798 13.5315 0.0
11.23605 2.4709 0.69555 2.0
11.874766 -7.269766 29.509933 2.0
8.636867 4.9483 -12.2758 0.0
2.4205 4.5952 -1.7608 0.0
12.57195 -12.15765 37.34325 2.0
10.31365 1.649283 -8.32095 2.0
-1.49188 0.89113 -1.70103 0.0
10.55947 1.06005 -3.32987 2.0
8.312934 -4.474492 18.700508 2.0
10.47555 2.637275 -18.314648 1.0
10.521088 3.529019 5.283675 2.0
-6.6833 7.715258 15.083756 0.0
13.23202 5.86044 -35.33884 1.0
9.6969 2.7878 -17.910801 1.0
14.5121 3.7272 -42.288601 1.0
-8.904529 4.122657 3.921914 0.0
-14.306649 8.879325 12.256 0.0
-6.107775 7.05495 10.0932 0.0
-3.9411 7.5827 16.14175 0.0
-4.702029 7.291857 14.722885 0.0
10.14225 5.0271 -25.126949 1.0
10.367849 -0.3283 9.13055 2.0
9.9266 1.3938 -6.0244 2.0
6.4288 -3.0561 18.666451 2.0
-8.4433 3.6382 2.8489 0.0
-9.099175 8.3077 12.714875 0.0
6.4124 4.5953 -8.6579 0.0
-10.3004 5.9897 6.233866 0.0
4.678958 -5.743471 24.931973 2.0
12.1475 4.1461 -16.701401 1.0
13.6688 6.066167 -37.479099 1.0
10.1045 2.5805 -14.7651 1.0
3.120933 8.057267 4.543067 0.0
-7.701175 1.915525 1.330175 0.0
13.844399 6.7787 -46.110271 1.0
14.11604 4.13216 -38.087456 1.0
11.052166 -1.6357 16.4807 2.0
-5.10095 7.52475 15.697125 0.0
7.059 -2.24115 16.326351 2.0
11.91536 5.646541 -28.287342 1.0
12.700746 -6.315461 31.119354 2.0
-2.690991 0.877029 -1.289659 0.0
8.31566 0.26844 2.28823 2.0
-3.510733 0.979567 -0.920767 0.0
-13.70305 8.729376 11.900225 0.0
11.4604 3.50585 -6.7731 2.0
7.737 5.8243 -7.3045 0.0
10.512733 4.279333 -8.876967 2.0
8.1768 1.9365 -7.1028 2.0
11.3691 -21.090799 47.850601 2.0
11.269432 3.333667 -2.4544 2.0
10.494918 -13.131763 36.529118 2.0
13.297767 -5.081133 31.678934 2.0
6.1408 3.245 8.520566 2.0
12.1844 2.498 -20.591 1.0
10.83522 3.28069 14.520101 2.0
3.7 4.2838 -5.6848 0.0
4.520225 5.23635 -4.12 0.0
13.8628 5.551 -36.305199 1.0
7.2651 -14.3823 41.467098 2.0
6.22315 0.02705 10.1192 2.0
-5.700601 5.25348 5.262801 0.0
-2.89086 5.7264 5.88538 0.0
-0.53755 2.75325 -0.386425 0.0
11.443375 -6.664875 27.510624 2.0
11.8991 3.149175 -24.135801 1.0
5.134993 -0.513857 12.920607 2.0
8.9312 -1.9961 12.0116 2.0
10.3814 5.2056 -25.887501 1.0
12.461963 5.917538 -42.672451 1.0
13.332133 -19.371832 45.248318 2.0
5.72425 -11.3411 37.317848 2.0
4.8892 -2.8279 17.764099 2.0
9.320145 -1.064411 7.889122 2.0
12.14045 3.4619 -19.3218 1.0
13.4772 4.8733 -27.864401 1.0
13.1928 -14.9588 41.3032 2.0
-4.073225 6.150774 8.066725 0.0
6.491638 -12.529938 37.0975 2.0
11.0358 -7.6282 27.9515 2.0
10.844999 3.71985 -1.51475 2.0
7.893391 -5.648864 21.743196 2.0
6.296333 -1.140217 12.31525 2.0
-14.856625 8.89565 11.840025 0.0
10.499181 -12.473933 35.509785 2.0
11.143925 -8.299974 29.683624 2.0
6.482415 -0.525129 8.693257 2.0
5.1484 -10.8984 36.132801 2.0
-13.281839 9.30342 13.319639 0.0
12.807332 5.898834 -45.88377 1.0
12.833325 -13.813825 39.58065 2.0
12.055577 -1.297092 23.126722 2.0
6.9501 -10.432751 31.38415 2.0
5.472758 5.520572 -4.674728 0.0
11.98345 -6.748075 29.141525 2.0
9.291568 -0.658767 6.101933 2.0
11.653049 -8.24775 30.335226 2.0
-13.298475 10.09295 17.102825 0.0
6.3221 -2.0778 13.118774 2.0
11.574551 4.10805 -14.96235 1.0
-7.311333 7.425733 10.428866 0.0
13.1071 4.333 -40.127216 1.0
12.084152 0.505033 21.910559 2.0
6.3005 -1.90368 14.37292 2.0
6.900301 -9.218766 29.330233 2.0
-0.3416 5.5798 4.0449 0.0
6.142133 -7.0242 25.918501 2.0
8.884591 -6.37027 23.515982 2.0
13.302925 6.460475 -46.518814 1.0
-0.743925 4.98155 2.73705 0.0
12.0325 -21.886999 48.507298 2.0
11.4973 4.9579 -15.5246 1.0
14.9558 4.8287 -44.636002 1.0
3.6504 -5.5181 27.602501 2.0
-10.8086 9.116 20.413601 0.0
8.030826 1.1042 -12.064875 0.0
11.904946 3.663069 -30.70709 1.0
10.104568 5.05885 -22.711584 1.0
14.5268 6.7729 -46.503601 1.0
8.448461 0.48852 -12.88134 0.0
-7.900767 4.051925 3.671242 0.0
-5.89216 6.338939 8.09444 0.0
8.706233 4.474634 5.274133 2.0
8.294975 -0.50765 5.934424 2.0
13.509501 4.1581 -35.040951 1.0
13.9147 -12.1802 40.365398 2.0
13.66705 -16.886551 42.972599 2.0
7.105766 -2.524067 13.452332 2.0
7.9204 -6.11275 22.870352 2.0
-4.3081 4.899457 4.652085 0.0
8.909785 4.313443 2.149286 2.0
10.692124 5.307675 -27.917425 1.0
12.0043 4.4084 -18.478399 1.0
10.4001 3.4609 7.5498 2.0
-7.698586 6.894729 8.505072 0.0
10.306157 -14.338958 38.321899 2.0
11.101713 1.919475 -2.28085 2.0
3.226733 -1.323033 18.4876 2.0
13.056556 -10.291533 36.334724 2.0
6.741016 -13.062501 37.894863 2.0
-14.091025 9.871375 15.5663 0.0
10.498075 5.06765 -19.658201 1.0
8.6889 4.270875 1.275025 2.0
11.1984 0.0262 13.2895 2.0
7.76615 3.85595 3.12695 2.0
3.546325 2.706625 -5.1292 0.0
-5.6762 2.907666 1.2958 0.0
12.9321 3.43855 -26.6227 1.0
12.7781 -3.741 28.6187 2.0
2.91415 -0.93075 -5.67125 0.0
-12.066299 6.077375 6.070925 0.0
13.1216 5.9397 -36.9496 1.0
10.055151 3.84265 6.4523 2.0
0.1026 7.06065 8.312987 0.0
10.77285 3.9692 -7.05915 2.0
-8.903122 8.917756 20.526611 0.0
-2.695629 6.474528 9.708714 0.0
5.4 -0.5793 12.0096 2.0
12.0197 5.2426 -15.2707 1.0
8.690753 -4.865987 19.932505 2.0
13.902775 6.2469 -39.091877 1.0
11.14435 4.34755 -13.7091 1.0
11.552367 -4.708854 24.679386 2.0
6.716175 -3.243225 15.693974 2.0
7.6422 3.7256 1.1459 2.0
6.6096 5.4431 -7.0137 0.0
8.057899 3.927 -1.3127 2.0
9.56485 3.7558 -18.6975 1.0
13.097924 -6.716034 33.34013 2.0
0.27634 3.53916 -0.167 0.0
6.09535 -2.0776 15.073801 2.0
12.1211 4.9701 -16.1674 1.0
10.3447 -8.1727 28.082975 2.0
1.5465 8.8055 8.9458 0.0
7.097012 -5.231113 20.902649 2.0
11.318 -19.829742 45.569149 2.0
10.5152 -9.7812 30.559 2.0
12.121067 3.053095 -21.698196 1.0
7.260433 3.356733 2.707367 2.0
11.669467 0.269933 16.256567 2.0
7.90205 5.724 -8.074 0.0
8.309529 -15.28039 40.483612 2.0
-9.489208 8.907377 15.471823 0.0
9.731 4.35165 -7.0174 2.0
8.893609 -2.46992 13.531702 2.0
9.45088 1.29492 -14.549299 1.0
13.489799 4.691389 -31.904457 1.0
-8.48362 7.85136 11.686386 0.0
11.4586 1.0818 12.7 2.0
9.7376 5.7918 -10.9262 0.0
10.5019 2.954825 -20.49305 1.0
-6.70074 7.87955 16.73353 0.0
4.75493 -3.26358 18.933519 2.0
6.556934 2.266767 -10.141467 0.0
-14.5248 9.759366 14.628834 0.0
1.6776 3.708389 -1.895211 0.0
8.270001 5.99135 -6.82985 0.0
13.886315 3.876429 -40.894501 1.0
10.36146 3.36392 10.897039 2.0
11.670774 2.760975 -19.618475 1.0
8.681299 -5.89312 22.45344 2.0
9.09244 -12.55742 35.474873 2.0
11.950879 -0.29766 21.48554 2.0
13.007966 6.180267 -48.103802 1.0
14.13602 4.2383 -46.061699 1.0
15.093399 5.88528 -45.91486 1.0
10.701267 -0.895733 12.6822 2.0
-1.4956 3.82455 1.3558 0.0
6.51275 -1.6247 11.724675 2.0
12.218 -22.4324 48.294498 2.0
14.12305 4.2381 -46.926117 1.0
10.9396 3.92885 -31.3346 1.0
-10.128981 3.95654 4.048339 0.0
3.10446 7.68066 3.3169 0.0
10.073634 -11.6351 33.931965 2.0
2.5015 8.293017 6.6723 0.0
10.7155 4.32324 -10.927099 2.0
13.547933 -10.933434 38.900101 2.0
6.33548 1.6898 5.2435 2.0
11.42355 1.2528 15.296949 2.0
5.255175 -9.5334 31.449451 2.0
0.083933 4.9332 1.8764 0.0
3.295897 5.908589 -0.520075 0.0
12.470275 -6.52001 30.279291 2.0
12.6269 -21.6145 47.305099 2.0
5.919023 4.091266 -8.704756 0.0
9.097876 6.115375 -5.1257 0.0
6.734549 -0.0616 6.668825 2.0
11.0896 4.4961 -14.528 1.0
10.91955 1.306 -7.9562 2.0
3.474255 5.3328 -1.915122 0.0
8.315877 -1.3665 9.517734 2.0
10.893 3.522425 -25.824751 1.0
12.19 -4.9966 27.7145 2.0
4.703363 -6.662316 26.899567 2.0
8.1374 -1.7386 12.2868 2.0
7.5088 3.8207 7.8616 2.0
2.944075 3.2858 -3.9156 0.0
4.7479 2.4529 12.2884 2.0
8.24345 -14.755134 39.667301 2.0
-2.693642 0.128908 -1.926767 0.0
12.064044 -4.893278 26.942421 2.0
13.11286 4.5087 -44.074879 1.0
6.27925 0.4314 9.076349 2.0
10.11135 2.2256 -12.33725 1.0
5.658384 2.306883 8.94775 2.0
12.709067 6.122467 -40.346432 1.0
9.86415 -0.6942 7.09425 2.0
4.572 -7.6149 28.8419 2.0
3.2541 -2.732367 20.7124 2.0
-3.2816 7.41466 14.3455 0.0
5.338734 -5.85855 23.921799 2.0
2.1728 5.4292 -0.1101 0.0
3.288173 -0.690791 17.519056 2.0
8.910767 4.865234 -13.661667 0.0
12.591 4.2088 -23.400999 1.0
9.269137 2.041775 -8.886076 2.0
13.98915 4.8412 -36.411499 1.0
12.6242 3.936 -21.2791 1.0
0.0014 5.1785 2.8253 0.0
11.2184 2.4358 5.072 2.0
8.304505 -12.503512 35.476311 2.0
10.30186 0.49892 1.0624 2.0
2.2586 4.0871 -2.364467 0.0
11.263833 3.665833 -7.9436 2.0
9.30094 4.26576 3.50052 2.0
8.317133 -7.372567 25.674767 2.0
2.2066 6.3954 2.3639 0.0
4.486967 -6.123684 26.075869 2.0
11.496583 5.713017 -35.314716 1.0
10.4131 -3.2328 18.1593 2.0
1.1727 0.6394 -3.4268 0.0
7.54345 -1.1895 11.68855 2.0
5.256325 -2.74375 16.68565 2.0
11.53476 5.69946 -37.327465 1.0
14.37615 4.7428 -38.161301 1.0
6.314575 -0.86135 11.70225 2.0
11.25445 2.5072 -1.88855 2.0
13.435275 -19.659624 45.892754 2.0
8.9326 1.3996 -4.7945 2.0
-6.0997 3.28315 1.89535 0.0
13.120501 4.01055 -33.718147 1.0
10.1365 -1.72062 13.334509 2.0
11.4596 -22.205099 48.137299 2.0
12.23477 -3.26414 26.28602 2.0
13.67998 4.23812 -47.729118 1.0
7.31325 7.03025 -2.2625 0.0
9.373966 4.3026 9.569567 2.0
5.54204 -7.06171 26.51123 2.0
11.97365 6.0178 -39.5014 1.0
4.531767 2.1005 13.146267 2.0
11.953842 -4.317771 25.881613 2.0
12.26382 -11.07633 35.314415 2.0
10.23505 -12.24015 34.995598 2.0
6.0633 -4.328675 20.3374 2.0
8.913872 -0.349286 5.095143 2.0
11.3442 5.0051 -16.8276 1.0
-6.9393 7.62655 12.660049 0.0
9.5895 -5.3244 20.879601 2.0
4.55615 8.447149 2.12995 0.0
12.5695 -0.9199 25.666201 2.0
10.887626 5.06 -18.703226 1.0
11.0783 2.0868 9.515201 2.0
6.95365 -1.4314 10.324699 2.0
7.7391 4.5032 2.6836 2.0
5.08835 1.5139 -7.51905 0.0
9.8347 1.08045 -15.13645 1.0
2.3577 7.8049 5.5739 0.0
8.086063 -10.6529 31.722176 2.0
5.854233 -8.969733 29.644701 2.0
4.77252 -10.213039 33.733559 2.0
-2.31226 7.36754 13.582319 0.0
5.480854 8.557938 1.057931 0.0
-7.7112 7.094025 9.114225 0.0
12.117599 -19.554501 45.2066 2.0
8.057492 4.312467 5.729092 2.0
3.528947 6.682773 0.123233 0.0
4.083783 -3.563817 20.876467 2.0
3.092275 8.914576 6.506388 0.0
-11.294575 7.257975 8.705675 0.0
9.88944 4.75918 -15.890482 1.0
4.899867 6.244333 -2.473234 0.0
-4.27695 4.6115 3.56195 0.0
4.098988 6.150612 -1.320588 0.0
6.11 0.5208 9.66595 2.0
10.787 -9.7834 31.4561 2.0
12.0605 5.8408 -14.3743 1.0
11.367126 2.686025 -8.675725 2.0
7.1319 -10.082001 30.286652 2.0
9.90635 3.9154 7.161 2.0
7.53335 -14.86615 40.514145 2.0
5.353975 2.897125 10.914438 2.0
-8.8063 7.3966 9.0115 0.0
6.66275 -2.6612 17.534149 2.0
8.489825 -11.312349 33.126736 2.0
2.916533 8.276577 5.512956 0.0
3.515778 -6.111789 27.8738 2.0
12.973727 -5.342754 30.857428 2.0
11.055901 1.717633 6.518267 2.0
2.311936 5.084255 -0.701845 0.0
8.902658 -9.073668 28.928431 2.0
11.174034 1.9085 14.364234 2.0
8.87815 3.06065 -14.8699 0.0
6.8945 1.67455 -10.297251 0.0
9.708775 -11.03495 32.737373 2.0
-4.87565 6.76325 11.70075 0.0
5.128182 -7.265736 27.535664 2.0
11.47565 5.1502 -19.425549 1.0
7.7396 3.111833 -1.680367 2.0
5.3308 6.2571 -2.9762 0.0
7.4142 3.1089 -11.5942 0.0
-6.0531 2.431367 1.2212 0.0
12.5492 3.6452 -22.604401 1.0
9.843983 -2.296016 13.761517 2.0
7.648775 3.90465 -12.352276 0.0
11.4259 -7.7842 28.6805 2.0
12.4407 3.655733 -33.1642 1.0
-9.49139 8.939391 19.885118 0.0
11.716472 -5.125643 26.041641 2.0
12.842649 3.5506 -25.31945 1.0
10.4828 6.2494 -9.3385 0.0
4.39565 3.88075 -6.08175 0.0
9.948172 -0.156643 4.351672 2.0
8.886 -13.159739 36.507698 2.0
2.1891 -1.6803 -5.4713 0.0
0.668917 4.543617 0.304083 0.0
-4.30888 6.78544 12.071401 0.0
11.7529 -0.2918 19.491566 2.0
6.092024 -9.922309 31.10585 2.0
7.7758 0.5728 -11.408751 0.0
10.927731 1.30426 3.91754 2.0
3.095665 -3.110094 21.708546 2.0
5.480647 -10.922701 35.103519 2.0
12.567035 5.302134 -42.971035 1.0
12.8064 3.7762 -35.807701 1.0
10.77345 1.04375 2.88585 2.0
13.8751 5.2882 -33.095047 1.0
11.888566 0.10092 20.709213 2.0
9.077479 -0.85864 7.2724 2.0
0.709257 4.0998 -0.306393 0.0
11.54934 5.89538 -36.508118 1.0
10.672743 4.278086 -10.081185 2.0
14.64695 4.575 -47.071472 1.0
6.3246 1.5115 -9.3198 0.0
-4.0947 3.42705 1.7885 0.0
8.5124 2.4597 -13.3829 0.0
4.0578 0.72355 -6.33155 0.0
11.64906 -1.70662 20.288799 2.0
12.699567 3.7745 -31.313536 1.0
4.5947 2.8326 -6.7272 0.0
9.8577 4.2235 -1.102067 2.0
9.6077 1.60505 -6.9453 2.0
1.46365 -0.25215 -4.13485 0.0
13.8762 3.8456 -36.865002 1.0
10.8799 -1.496618 15.482353 2.0
10.24995 3.477525 9.905175 2.0
3.92945 3.31265 -5.47415 0.0
-10.176 6.5918 7.2722 0.0
10.1107 3.5855 -23.9937 1.0
14.667225 5.106325 -40.855099 1.0
3.7029 -2.482956 19.295588 2.0
-8.679183 8.542518 18.8946 0.0
-12.63225 6.97145 7.33055 0.0
7.5725 -15.83175 42.29845 2.0
-0.14038 -0.25574 -3.1663 0.0
-0.9749 3.8042 0.975 0.0
12.9798 -11.1315 37.066929 2.0
5.36 -1.097767 13.101733 2.0
11.626801 -2.448267 21.351767 2.0
12.088867 5.689833 -29.233068 1.0
4.725578 -0.091357 13.675021 2.0
11.808 5.782 -38.389999 1.0
7.897982 -3.159409 15.259402 2.0
-1.9011 5.730371 6.1112 0.0
0.34368 7.4675 8.92026 0.0
11.661312 0.291938 17.073513 2.0
-7.116734 1.9371 1.145967 0.0
-5.913745 7.158245 12.309991 0.0
6.2614 -1.3708 12.979 2.0
-13.326 9.812733 15.284434 0.0
3.669812 6.328938 -0.3239 0.0
6.0559 -10.3494 32.266899 2.0
11.50338 5.65832 -30.115559 1.0
11.296725 2.647225 -19.079849 1.0
10.927266 5.716767 -29.678801 1.0
13.8365 -8.889 36.791698 2.0
12.512957 5.8948 -31.882656 1.0
-2.91298 6.11386 8.49492 0.0
4.908367 0.504217 12.420135 2.0
10.8556 -18.57052 44.0858 2.0
10.698901 1.471034 -6.8737 2.0
10.89936 5.44434 -28.70232 1.0
10.293043 -1.896571 14.517099 2.0
4.5045 -7.0809 28.115551 2.0
-11.698144 7.467333 9.110233 0.0
10.08755 2.3464 -13.2507 1.0
9.494108 0.086982 2.103975 2.0
7.8985 3.7431 -4.2325 2.0
11.2944 4.13035 -33.480598 1.0
5.9875 -0.4037 9.4493 2.0
13.9633 -14.6173 42.084599 2.0
13.8658 -12.248 39.5938 2.0
11.3471 3.1855 17.150999 2.0
10.1855 3.6591 -25.065399 1.0
10.369466 -0.154867 7.7453 2.0
6.496128 -9.680553 30.298695 2.0
11.925438 -14.32865 39.257828 2.0
12.2957 4.8705 -21.67765 1.0
-13.9532 7.3688 8.6372 0.0
-1.274467 7.9074 14.322867 0.0
12.9842 4.76505 -27.53075 1.0
15.263707 5.092001 -45.742001 1.0
10.492539 0.88018 -0.90636 2.0
10.062041 -8.819924 28.925041 2.0
11.368899 0.073013 14.493225 2.0
1.9288 7.88175 6.7346 0.0
10.267099 5.1165 -15.0099 1.0
13.688366 3.925033 -45.8535 1.0
-8.2216 2.8185 2.3351 0.0
13.9122 4.65235 -32.503952 1.0
10.9975 -14.7928 39.216499 2.0
6.285934 5.544567 -6.1646 0.0
8.749 4.2189 -1.12475 2.0
6.3803 -3.9327 19.3976 2.0
5.48906 -7.91416 28.269382 2.0
10.5968 5.0504 -30.9473 1.0
12.6779 5.97685 -36.324501 1.0
12.692631 -19.047209 44.715107 2.0
-1.178633 -0.0321 -2.553367 0.0
10.07314 1.14216 -4.71412 2.0
8.49435 0.09275 3.06465 2.0
-8.920099 8.6435 17.487125 0.0
11.306217 2.512567 -16.915966 1.0
-6.697425 3.686475 2.927325 0.0
11.66862 3.70662 -14.549701 1.0
12.882725 5.48475 -30.146351 1.0
8.8899 2.0725 -9.8603 2.0
13.7784 3.7562 -36.006699 1.0
11.102367 5.244834 -21.562433 1.0
-10.473017 9.37045 16.494148 0.0
-6.696547 7.7596 15.921505 0.0
-4.090383 2.722966 0.835792 0.0
11.076016 2.115267 4.542817 2.0
11.098367 3.569067 -27.047434 1.0
6.8803 3.6488 8.8816 2.0
10.6142 4.0034 -5.2664 2.0
5.6017 2.2615 -8.3557 0.0
8.5685 -17.451799 45.129101 2.0
2.704166 6.496075 1.453667 0.0
1.54065 6.301875 3.06935 0.0
12.1213 4.5497 -40.166599 1.0
7.69155 -0.3116 -10.91655 0.0
5.774 -12.0426 38.421101 2.0
9.473786 -13.9572 37.857018 2.0
6.696733 1.917033 3.489034 2.0
10.07165 1.93635 -9.6482 2.0
11.97705 3.1222 -18.481251 1.0
11.32167 2.07674 16.2981 2.0
10.842862 3.661512 -3.485888 2.0
4.50845 -0.163 14.39375 2.0
7.688736 3.491882 -0.669536 2.0
12.334767 6.0563 -41.334934 1.0
11.464687 2.2922 17.504412 2.0
6.68305 6.13495 -4.7451 0.0
8.51315 -15.638037 40.893311 2.0
-2.096573 5.494353 5.138567 0.0
5.547367 -1.6518 14.550099 2.0
7.4851 3.668075 3.905275 2.0
11.2154 3.8056 -9.0324 2.0
12.499118 -8.499249 32.917542 2.0
10.0557 -5.9259 22.3906 2.0
6.8358 5.3243 -7.8004 0.0
3.132667 -3.841889 23.0996 2.0
6.359674 2.5312 4.354075 2.0
12.71382 3.51223 -24.316563 1.0
13.256901 5.291175 -32.100063 1.0
12.3113 4.1841 -36.967899 1.0
9.5068 -8.437325 27.8811 2.0
11.323478 2.491633 -7.465645 2.0
10.9542 -10.57255 32.908401 2.0
12.50275 6.0344 -43.802597 1.0
11.872366 -4.092089 25.301668 2.0
10.637051 -7.45595 27.172451 2.0
8.08705 6.459575 -3.936275 0.0
-4.2628 6.582733 10.9082 0.0
6.976681 1.48778 2.49182 2.0
10.909866 -1.1056 14.521168 2.0
4.027 -0.5554 16.010201 2.0
13.924719 -13.12332 41.042522 2.0
-3.91171 6.093875 7.125244 0.0
7.353767 -3.060433 14.8694 2.0
11.5287 3.0636 -23.334751 1.0
-14.296815 10.171121 17.703527 0.0
9.958 3.734 -20.774 1.0
11.754048 -0.082767 18.902283 2.0
13.2156 4.8361 -29.7236 1.0
9.9899 -0.199 5.7076 2.0
-5.0968 7.106575 12.90005 0.0
13.756149 4.2813 -33.436752 1.0
8.0223 -16.142599 43.382 2.0
11.351933 -0.495678 15.281943 2.0
12.078171 -20.353464 46.106129 2.0
-6.4838 8.1934 18.6071 0.0
5.7871 -12.0312 37.407799 2.0
6.0053 -0.7773 10.6034 2.0
7.4506 3.4344 -2.7041 2.0
15.1732 6.1796 -42.805099 1.0
-13.4503 9.5994 14.6597 0.0
-2.299896 1.296431 -1.094457 0.0
-8.91449 8.658989 15.711641 0.0
-12.4413 5.5561 5.5916 0.0
10.267314 -1.2691 12.116357 2.0
12.097507 5.93025 -35.507389 1.0
11.679766 2.717645 -14.897101 1.0
-6.5082 7.072539 9.55818 0.0
10.254351 -20.314751 47.047001 2.0
10.754247 1.080861 1.534415 2.0
9.528133 4.713267 -16.922266 1.0
12.694779 -9.499919 34.688431 2.0
9.8277 -0.8561 8.327285 2.0
5.96105 3.89355 -9.830851 0.0
4.632075 0.4387 13.4712 2.0
-6.8505 2.85 1.5625 0.0
11.048599 0.322075 11.096675 2.0
11.23116 -3.50772 21.31818 2.0
9.891293 -4.294113 19.717386 2.0
-9.8993 8.553933 13.088567 0.0
3.9723 4.2175 -5.0098 0.0
11.5975 -0.549 17.926901 2.0
8.2031 2.6359 -5.7523 2.0
6.1112 6.9111 -2.275633 0.0
4.264781 -7.501838 29.313856 2.0
9.694141 4.251662 -1.733184 2.0
10.09887 -14.86396 39.107559 2.0
12.55515 4.7131 -24.116751 1.0
11.3901 -0.5708 16.052401 2.0
7.94725 -9.39215 29.47525 2.0
6.47074 -0.93478 9.863699 2.0
10.723744 3.716855 -2.863456 2.0
11.103701 5.6472 -13.9086 1.0
11.6464 3.3635 -28.1535 1.0
11.708281 -18.44054 43.891121 2.0
13.4281 -14.029 40.577702 2.0
1.681 3.087175 -2.25615 0.0
9.092967 0.088511 2.683989 2.0
9.444425 3.675725 -17.50515 1.0
8.2789 4.09442 -13.65344 0.0
-7.918567 4.7563 4.621833 0.0
7.672946 4.909053 -10.678913 0.0
13.3968 -9.7863 37.740299 2.0
-7.6776 7.977425 14.891475 0.0
-3.2816 1.663443 -0.459486 0.0
11.911449 5.68225 -41.231148 1.0
-15.3047 9.2901 12.842167 0.0
12.128386 -3.091629 25.711458 2.0
10.351512 3.919625 13.111425 2.0
6.9946 2.482 2.1634 2.0
13.3429 4.4094 -26.733299 1.0
12.7414 3.7412 -34.7295 1.0
-1.3235 7.1525 11.6875 0.0
12.2985 0.4691 23.008301 2.0
9.7578 2.3831 -12.7586 1.0
7.281725 -2.252825 12.5151 2.0
12.988567 -9.570533 35.474766 2.0
3.13148 -1.31812 -6.0514 0.0
8.1465 -16.983601 44.0462 2.0
11.0476 4.828133 -31.890368 1.0
5.28645 5.89165 -3.662588 0.0
5.49354 -4.32806 20.274071 2.0
8.10185 4.7262 -11.68445 0.0
13.54625 3.54685 -31.89415 1.0
11.7426 -13.7831 38.402802 2.0
3.0992 -4.2608 24.961901 2.0
9.319156 -4.312011 18.876545 2.0
-8.481608 7.058409 8.312018 0.0
12.63305 3.5265 -23.164951 1.0
8.444799 -3.80535 17.063301 2.0
15.0606 4.2759 -37.966599 1.0
-5.684215 7.551629 15.695929 0.0
10.158017 3.927083 11.848816 2.0
12.4059 -7.4266 31.127501 2.0
-2.506637 5.8966 7.038782 0.0
1.7701 1.63575 -3.8572 0.0
10.708792 3.50057 2.13565 2.0
12.660925 -13.482175 38.949875 2.0
6.474608 -6.374943 24.248636 2.0
14.0122 -9.9843 38.074501 2.0
8.9012 4.4106 3.9993 2.0
-1.2784 6.9654 11.0392 0.0
6.881789 -6.026639 23.138599 2.0
-13.7024 6.7966 7.627 0.0
2.717217 -0.327183 -5.091567 0.0
5.56592 -9.22748 30.310938 2.0
11.5616 2.50665 -13.5068 1.0
-3.282867 0.143 -2.105567 0.0
12.345183 6.181183 -32.711487 1.0
10.506413 0.924575 -2.320312 2.0
3.7717 -5.03095 24.590401 2.0
-7.486516 7.473267 11.114391 0.0
5.95875 -11.663651 35.979347 2.0
11.9364 5.7953 -32.591652 1.0
5.178688 0.120188 11.717089 2.0
4.506319 -5.072994 23.498978 2.0
10.113784 -16.425268 41.360401 2.0
1.1422 8.209351 9.09725 0.0
10.36605 0.428925 3.2615 2.0
12.679667 4.672867 -42.270515 1.0
4.698513 5.070063 -4.675037 0.0
6.8775 4.116367 -10.5163 0.0
10.696664 3.293027 5.913945 2.0
0.881583 6.13235 4.059767 0.0
11.4022 6.1816 -34.218102 1.0
6.7255 -4.8379 19.7292 2.0
4.102556 -4.4633 22.720312 2.0
8.409 4.8656 7.0769 2.0
12.043051 5.0793 -39.74305 1.0
6.35226 -4.03536 17.972239 2.0
11.4466 4.2949 -36.442799 1.0
10.5986 3.4073 15.2797 2.0
-9.298613 8.111899 11.110188 0.0
11.1165 -20.648352 46.718502 2.0
5.8296 0.27245 10.70825 2.0
10.498019 -17.5406 42.831997 2.0
11.711349 2.9696 -22.323502 1.0
5.56825 -4.01725 19.271049 2.0
11.744641 -21.6411 47.571281 2.0
3.2204 4.34665 -3.5008 0.0
3.9303 -2.0169 17.6145 2.0
13.2327 6.3937 -42.042099 1.0
-9.883337 7.516763 9.120062 0.0
8.5361 3.1663 -14.3536 0.0
11.438133 -3.47195 22.10405 2.0
-8.914687 8.657263 16.50495 0.0
13.3921 4.5906 -48.581501 1.0
6.4204 7.5693 -0.9444 0.0
14.4028 6.1628 -37.828701 1.0
9.3767 3.1616 -15.9451 1.0
12.786 5.9525 -47.222801 1.0
7.310183 3.104783 1.29605 2.0
5.895375 0.341875 8.6304 2.0
11.42594 2.3263 -11.88348 2.0
5.7249 3.5771 10.4638 2.0
13.7144 6.3347 -38.466301 1.0
10.307487 -19.506397 45.699566 2.0
9.68685 -5.6761 21.87225 2.0
11.186501 3.1414 -5.5273 2.0
3.0739 -5.302 26.591801 2.0
11.8063 2.3117 19.336399 2.0
-5.327 6.8991 10.721633 0.0
10.937434 2.894533 1.675433 2.0
8.8435 2.1529 -7.7204 2.0
13.2684 3.2412 -29.2584 1.0
-9.684919 8.87422 14.669661 0.0
3.743525 7.640425 1.718425 0.0
12.501233 5.925667 -34.474365 1.0
-8.4671 5.75725 5.8236 0.0
9.838586 -2.646872 15.272985 2.0
-6.26385 7.23765 11.184401 0.0
11.336867 2.290517 -10.898915 2.0
-15.8368 9.6085 14.4624 0.0
9.974067 -0.148433 4.913434 2.0
6.513771 2.886786 5.484557 2.0
1.2515 5.0201 0.1802 0.0
-14.297951 10.058942 16.486967 0.0
11.671801 -10.2188 33.13065 2.0
3.953171 8.238028 2.931886 0.0
-3.2604 7.2168 13.5312 0.0
6.317567 -13.240434 39.929836 2.0
14.2697 6.6401 -40.294376 1.0
14.7752 6.707 -41.794998 1.0
14.096684 -15.286393 42.102802 2.0
-12.723075 6.45925 6.507875 0.0
11.645439 -1.09345 18.660891 2.0
-6.29735 6.69885 8.578899 0.0
13.478989 4.10095 -31.058668 1.0
12.04176 -5.71194 27.748981 2.0
5.4507 7.7477 -0.0598 0.0
12.434799 3.89555 -20.105549 1.0
8.9191 5.98395 -8.11035 0.0
10.082479 4.066633 0.07752 2.0
11.6791 2.6566 18.567301 2.0
11.846525 1.102825 20.105476 2.0
-1.690375 3.8515 1.879975 0.0
-3.91712 7.4695 15.35186 0.0
-5.300383 6.447041 8.353792 0.0
11.3317 2.869 -3.1316 2.0
9.881301 4.9121 -20.863266 1.0
-0.057667 3.691434 0.258417 0.0
10.5753 4.0226 -29.4014 1.0
14.7657 6.4029 -39.261799 1.0
-13.290214 9.913714 18.249256 0.0
0.3773 1.2975 -2.8649 0.0
-0.498133 7.698767 11.492358 0.0
8.88405 -17.277424 43.105953 2.0
14.285999 4.2923 -44.554199 1.0
9.7531 3.1521 -19.7775 1.0
6.506978 -10.671679 32.338078 2.0
10.8404 4.0085 -27.607599 1.0
-14.72215 8.822349 11.30255 0.0
10.550699 5.4683 -13.8489 1.0
12.4193 5.8566 -30.3447 1.0
8.8576 2.2453 -13.95875 0.0
-7.0078 7.7086 19.200399 0.0
10.324436 -4.734691 21.671253 2.0
11.31915 2.5058 -17.7936 1.0
11.12352 5.51756 -26.959421 1.0
-0.50264 1.27666 -1.8745 0.0
-12.103488 9.878463 18.867149 0.0
14.959 4.2404 -46.0378 1.0
-9.118175 4.5456 4.503625 0.0
14.24 6.136 -38.49358 1.0
11.178699 1.728875 13.6752 2.0
3.118175 -5.1155 25.69035 2.0
-11.911363 6.453809 7.125128 0.0
-7.5559 2.8886 1.7968 0.0
13.4047 3.591 -30.669399 1.0
10.898612 -9.099324 30.4559 2.0
6.8132 4.058 -11.5548 0.0
-3.9194 5.51465 5.7464 0.0
-5.096567 7.309056 14.287345 0.0
-3.09555 6.70075 11.291343 0.0
4.22188 0.25646 14.692739 2.0
-8.5041 8.152875 12.874201 0.0
-1.7404 4.9894 2.8976 0.0
5.1243 -0.495633 -7.465856 0.0
-6.908313 6.65635 8.468025 0.0
7.110245 -4.944256 20.117687 2.0
12.682672 -5.4982 30.112764 2.0
12.9027 6.2864 -45.310123 1.0
-13.6464 8.006 8.5941 0.0
-1.32875 1.3708 -1.3775 0.0
6.5389 3.6452 8.2909 2.0
6.48346 4.10272 -9.698621 0.0
4.4429 1.7886 14.1696 2.0
6.89462 -0.47022 9.752439 2.0
11.0393 -5.0306 23.49 2.0
10.96043 2.70417 14.28255 2.0
3.52001 0.26939 16.26012 2.0
7.464337 -14.366863 39.675453 2.0
8.5554 0.9595 -1.296 2.0
7.5595 0.3916 2.96555 2.0
11.4002 6.0719 -12.3577 1.0
14.8783 5.2848 -38.192902 1.0
7.3938 -13.4489 37.336102 2.0
11.49872 5.516029 -14.32876 1.0
8.4153 -0.22265 8.8424 2.0
6.97425 -0.6185 7.5552 2.0
-9.303634 5.992267 6.660433 0.0
3.4657 8.884386 5.514343 0.0
13.348049 4.71865 -30.3333 1.0
11.499701 5.62905 -27.6717 1.0
5.8981 -0.10534 11.1122 2.0
-1.510073 6.533464 9.139381 0.0
11.0328 3.4374 0.468 2.0
6.6214 3.18995 6.1718 2.0
9.581 4.1915 10.0788 2.0
-11.4991 5.785975 6.2656 0.0
7.299433 -7.272316 25.753485 2.0
10.098166 0.5017 -1.677167 2.0
7.697417 5.08555 -10.089033 0.0
9.7188 2.6676 -13.8181 1.0
3.126666 6.4662 0.529933 0.0
14.079067 3.954567 -41.876221 1.0
4.7499 1.3435 -7.1016 0.0
11.064437 5.72845 -31.6751 1.0
13.5911 5.1255 -34.119099 1.0
14.101151 3.73085 -39.544151 1.0
10.7042 -19.986799 46.7971 2.0
11.924633 3.476233 -17.262901 1.0
13.3681 -13.1863 39.804501 2.0
10.8628 3.091934 4.084983 2.0
0.68008 5.73328 3.5021 0.0
11.156539 -5.73315 25.25942 2.0
10.740499 5.30865 -32.066048 1.0
-10.8776 8.9269 12.1925 0.0
9.096781 -3.030982 15.268436 2.0
11.3177 1.8127 9.0889 2.0
4.5219 -1.29008 15.915759 2.0
11.349091 -11.758182 35.055199 2.0
9.3104 0.3656 0.97 2.0
14.6856 5.120766 -39.110931 1.0
11.040546 1.697337 1.905595 2.0
11.797 0.469 19.8594 2.0
11.0866 1.482 -10.2186 2.0
-5.700429 8.122486 18.498316 0.0
13.2946 6.4247 -40.840302 1.0
14.1792 4.8005 -38.781601 1.0
-9.26535 6.852825 7.9112 0.0
12.18675 3.1109 -20.416451 1.0
-0.19435 -0.91655 -4.0076 0.0
11.8683 6.068 -30.0109 1.0
11.0944 6.21665 -11.2673 0.0
11.16123 4.1467 -30.281498 1.0
2.13826 3.09252 -2.89578 0.0
-6.07095 4.441275 3.438225 0.0
12.1314 5.6215 -26.7743 1.0
10.919856 5.896422 -12.862423 0.0
10.9815 4.5645 -15.8137 1.0
6.485564 -8.37119 28.248962 2.0
-5.6422 7.36625 14.44685 0.0
11.08249 -5.293221 24.308849 2.0
-4.28175 7.03295 12.874149 0.0
8.112514 4.648714 -12.917643 0.0
12.5105 -2.25715 27.525299 2.0
12.63185 5.2687 -46.533051 1.0
0.6066 4.76135 0.90545 0.0
14.29528 4.08048 -40.237 1.0
9.490701 -12.770299 35.848286 2.0
11.488053 1.2969 17.095425 2.0
10.08535 4.87775 -17.764648 1.0
13.671383 4.17325 -34.100517 1.0
13.066967 -20.754833 46.3349 2.0
-6.3487 4.9085 4.1994 0.0
9.350651 -1.65115 9.89415 2.0
-0.13205 5.954225 5.102025 0.0
9.7534 4.452 -5.1517 2.0
9.457576 -18.333225 44.666264 2.0
11.477223 1.098531 16.299007 2.0
6.770933 -14.3069 41.077366 2.0
10.2223 -0.816 10.2228 2.0
12.910238 3.72058 -25.9491 1.0
0.2793 5.2642 2.2666 0.0
14.6316 3.7258 -38.635399 1.0
7.9562 4.6647 4.1851 2.0
13.4632 4.26995 -28.64875 1.0
-8.317374 4.34965 3.863775 0.0
10.3946 3.3603 12.0609 2.0
10.7987 6.2864 -10.2049 0.0
-5.71784 7.819881 16.669479 0.0
11.0461 3.263 -1.29214 2.0
-10.5118 9.007267 13.9381 0.0
5.52458 1.896 9.28686 2.0
8.49424 0.63106 0.45692 2.0
-0.5871 4.3904 1.639 0.0
9.318967 4.8992 -14.4406 0.0
5.9839 -2.6138 14.9917 2.0
9.507675 0.821975 -1.884925 2.0
-7.685148 8.066679 15.871815 0.0
10.232831 0.349736 2.129248 2.0
9.46035 4.2133 5.868925 2.0
5.4817 3.1431 -8.2098 0.0
12.8004 6.4205 -37.691399 1.0
8.359449 2.16165 -5.28705 2.0
4.52138 1.49276 13.22314 2.0
-8.3716 8.2643 13.502999 0.0
3.431025 3.69115 -4.531 0.0
7.0143 -4.6556 19.1598 2.0
-0.553014 6.189857 6.680243 0.0
7.2772 3.3865 -1.5904 2.0
11.933473 -2.4991 23.523027 2.0
-12.930125 7.497175 8.3046 0.0
3.441 1.0842 -5.5961 0.0
-11.633801 9.283899 19.913101 0.0
8.8736 4.1996 -5.0648 2.0
-5.7896 3.9754 3.0928 0.0
8.104537 -5.465888 21.275587 2.0
9.505788 -10.550077 31.735765 2.0
8.64065 6.10275 -4.08375 0.0
-2.1137 5.0883 3.9384 0.0
-11.306623 6.838167 7.527155 0.0
-14.115933 8.672299 11.131665 0.0
10.5575 0.454425 5.641725 2.0
7.89506 -0.66842 9.90298 2.0
9.7083 -4.0447 17.491699 2.0
6.2173 3.2788 10.1187 2.0
11.34834 3.6959 -11.0461 2.0
10.436501 4.23805 -25.7917 1.0
4.3667 -8.9152 31.705601 2.0
-9.67045 3.4574 3.440538 0.0
6.93306 4.857419 -9.3393 0.0
-8.29262 2.14504 1.6668 0.0
11.23353 2.11108 -8.4997 2.0
9.8005 3.3762 -21.2351 1.0
11.33875 3.2578 -25.5368 1.0
-6.693762 7.674313 14.336299 0.0
10.6371 -0.264525 10.085925 2.0
-7.1021 1.63395 0.5226 0.0
10.4683 -5.6701 23.317068 2.0
13.3749 3.3654 -30.097601 1.0
11.220666 2.1653 -4.651167 2.0
9.8041 -18.775 45.647202 2.0
9.7913 -3.7954 18.4405 2.0
6.16136 -12.6687 38.913422 2.0
8.635799 4.1482 -14.4324 0.0
5.921343 -8.680314 29.101299 2.0
-2.2297 7.6133 14.1338 0.0
-5.9208 7.4336 13.58105 0.0
8.5947 1.3772 -13.2464 0.0
10.8332 5.8879 -28.284599 1.0
1.078786 5.280757 1.516229 0.0
7.697433 5.328333 -9.229366 0.0
6.1966 -7.6033 26.9722 2.0
-1.68935 7.905325 14.869675 0.0
12.4446 4.8352 -41.0116 1.0
11.83195 -13.30385 37.685799 2.0
7.1675 3.7549 -12.1566 0.0
12.1824 -2.583 25.536201 2.0
-9.5888 9.037467 16.562767 0.0
11.5112 5.125933 -20.732866 1.0
2.6214 4.9952 -1.185 0.0
14.8697 5.5952 -39.9897 1.0
10.3576 -2.3971 16.4256 2.0
-7.4547 4.8373 4.3178 0.0
3.978167 2.284066 -5.910633 0.0
7.0244 3.3931 4.9195 2.0
13.913851 6.837875 -44.110771 1.0
6.068738 -4.956875 21.088123 2.0
14.2607 -17.196301 43.6749 2.0
5.72272 5.08452 -6.32718 0.0
9.871201 3.301867 -18.676832 1.0
-8.707575 8.223226 12.3374 0.0
-9.466801 7.36025 8.81495 0.0
4.298493 -5.69072 25.310848 2.0
7.071 -11.71842 34.492924 2.0
12.5561 -15.5938 41.2174 2.0
7.45374 0.87142 1.64616 2.0
10.76545 1.45195 -5.2994 2.0
6.911734 -5.3854 21.503866 2.0
12.271999 5.06345 -22.9561 1.0
15.499914 5.294057 -47.124016 1.0
8.6818 4.9432 7.9953 2.0
1.3287 4.507412 -1.689125 0.0
-0.75255 8.09115 13.52375 0.0
3.343875 7.912775 3.892175 0.0
7.517534 3.693067 -12.849734 0.0
13.913 6.73185 -43.25605 1.0
10.429167 3.831 1.473633 2.0
13.489234 3.923733 -42.074696 1.0
2.9376 -3.322871 22.315386 2.0
4.160067 1.667633 -6.223167 0.0
-7.1723 7.619 11.6116 0.0
7.1087 -3.49805 16.130852 2.0
10.9594 2.1548 13.0907 2.0
-9.5608 8.4254 11.8526 0.0
10.5635 5.2041 -23.053499 1.0
14.6693 6.3743 -39.893799 1.0
14.189301 6.85155 -41.027298 1.0
10.30635 5.15295 -23.96645 1.0
12.485871 -19.845943 45.554901 2.0
13.029819 -8.471766 34.560883 2.0
11.78875 5.1487 -37.909203 1.0
10.1475 4.187033 -3.698817 2.0
12.307125 3.23805 -23.490826 1.0
8.6028 3.9017 -15.3995 0.0
7.51552 2.90048 -0.48976 2.0
11.861676 -1.301424 21.09771 2.0
5.1861 5.0494 -5.6435 0.0
5.1038 -10.65545 35.374851 2.0
-9.0708 7.693166 9.684567 0.0
11.108721 1.71462 -9.07544 2.0
6.560999 -11.047433 33.107433 2.0
14.750501 6.772133 -48.481033 1.0
10.502151 1.328867 -6.340867 2.0
11.8997 5.786 -13.4387 1.0
7.6284 2.29355 -5.1369 0.0
12.4769 5.0586 -41.945 1.0
10.112971 -10.6364 32.176689 2.0
11.041066 -6.2385 25.832434 2.0
10.6346 4.985 -16.417801 1.0
13.264995 -7.704315 34.900318 2.0
11.006 -2.6407 18.785 2.0
-0.496517 0.492567 -2.4534 0.0
11.2779 5.6104 -22.867001 1.0
6.501034 -11.841384 35.34798 2.0
12.69536 5.91734 -44.68486 1.0
13.0299 5.205 -28.366199 1.0
4.4565 9.019951 3.2716 0.0
11.93905 3.5154 -29.8904 1.0
7.349725 -12.018076 34.950153 2.0
12.291201 4.09055 -18.159901 1.0
10.0874 -0.3757 2.8469 2.0
6.4654 -11.5879 34.863899 2.0
6.7731 -14.4349 40.559502 2.0
12.1879 -19.1947 44.804699 2.0
-11.486201 5.1255 5.2951 0.0
-2.095195 3.306985 1.13477 0.0
10.734157 1.2871 -1.9296 2.0
0.903275 3.292181 -1.113094 0.0
5.709675 1.50445 8.226501 2.0
12.76369 -6.9046 32.062321 2.0
9.8671 -1.3364 7.8838 2.0
8.458019 4.18132 0.05443 2.0
9.4237 -1.9334 10.9207 2.0
-4.2806 1.266233 -0.422883 0.0
4.1665 2.8588 -6.0773 0.0
13.488585 -9.298208 36.496147 2.0
12.5769 -17.194201 42.806801 2.0
9.495061 -13.31468 36.781338 2.0
-0.061 6.24818 5.71488 0.0
-10.107433 4.8297 4.6977 0.0
8.195 2.8512 -12.985 0.0
9.699625 6.124375 -8.061375 0.0
1.1805 7.8139 8.1779 0.0
5.3865 2.3368 9.9967 2.0
5.876946 -7.925468 27.906523 2.0
-1.496329 -0.699157 -3.0881 0.0
8.298 5.64565 -9.096951 0.0
12.1581 5.31705 -40.93515 1.0
0.31575 3.08535 -1.0748 0.0
-0.860633 7.0235 9.857368 0.0
12.7518 -1.5726 26.918301 2.0
-16.361799 10.3688 17.9074 0.0
12.688 6.042675 -33.344025 1.0
11.145599 -1.328543 16.058586 2.0
-4.323362 0.168387 -1.37905 0.0
13.0811 5.51395 -31.166315 1.0
11.331767 4.105234 -13.064334 1.0
11.6882 3.27275 -12.34915 2.0
9.271363 -16.557438 41.697464 2.0
-7.089562 8.103563 17.686926 0.0
11.809 3.0015 -26.445999 1.0
-10.3193 8.9933 14.8231 0.0
-12.739649 9.896675 17.269924 0.0
9.7264 -3.6279 16.4242 2.0
10.778151 -4.320025 21.868277 2.0
9.511274 -15.9828 40.821201 2.0
0.7736 6.4629 5.0933 0.0
-4.51062 6.14646 6.8651 0.0
-13.9439 8.078234 9.093201 0.0
3.9451 4.86265 -4.066075 0.0
8.112701 3.8701 -2.09665 2.0
9.042 0.2332 8.5562 2.0
8.7802 -0.9896 9.8515 2.0
4.748225 -4.252575 21.15625 2.0
3.464167 -0.361967 17.009367 2.0
8.4951 0.303867 7.6819 2.0
7.880085 -3.446643 15.949885 2.0
10.501871 3.122014 11.47677 2.0
11.4094 4.7173 -37.8876 1.0
10.99245 2.57245 5.74585 2.0
11.209267 2.830784 16.489367 2.0
10.148033 4.478401 -9.986966 2.0
-10.9175 9.6744 20.3759 0.0
6.9027 -13.35565 40.285797 2.0
11.3974 2.5759 -22.124399 1.0
11.0713 4.4488 -34.539299 1.0
4.7568 -10.3292 34.892502 2.0
4.9641 0.2639 -7.1541 0.0
9.343572 -17.686245 43.336647 2.0
12.3706 -13.7432 38.512501 2.0
4.35075 -9.88935 33.0425 2.0
10.462934 4.268 -8.075667 2.0
13.6048 4.2026 -38.5965 1.0
9.8401 -5.5826 21.367599 2.0
4.668933 8.876567 2.7744 0.0
11.567783 -2.896367 22.311186 2.0
11.62645 5.7746 -33.303749 1.0
9.855468 4.299766 -21.833067 1.0
0.7253 8.281301 10.109301 0.0
6.0455 2.8827 8.081475 2.0
11.28082 4.51246 -32.746758 1.0
10.7711 2.5861 -19.134701 1.0
0.28545 5.32655 3.2678 0.0
11.5824 -1.3557 19.2882 2.0
10.75845 0.698 6.1616 2.0
11.1932 0.9941 11.8105 2.0
8.894134 1.780433 -6.044867 2.0
-10.89525 8.257763 10.689025 0.0
7.5703 -0.4527 6.1933 2.0
11.686168 2.690633 -18.556932 1.0
1.57995 0.6938 -3.80665 0.0
-11.701659 9.28068 13.45208 0.0
11.1945 -2.1306 18.6889 2.0
9.7609 2.8985 -15.0035 1.0
13.0294 3.309 -28.133499 1.0
11.92618 -22.05884 47.945839 2.0
9.689091 -18.287031 44.088417 2.0
11.9318 -2.7888 24.504101 2.0
-10.6223 9.196 19.907301 0.0
10.7663 3.7828 -4.6752 2.0
5.131 -1.6542 14.86981 2.0
-9.660749 8.961725 17.282074 0.0
-12.50723 9.728643 16.30537 0.0
10.72092 -8.90314 29.896099 2.0
15.489799 6.30585 -46.924202 1.0
11.3321 -22.10195 48.665684 2.0
13.4238 3.6367 -33.237701 1.0
6.5342 0.4831 -8.9282 0.0
-12.705151 9.5421 18.7939 0.0
7.5662 4.6296 -11.9122 0.0
-0.03595 6.5945 7.4875 0.0
13.299129 5.727357 -34.664772 1.0
11.6197 -15.0972 39.9884 2.0
-4.86535 7.3499 15.2201 0.0
10.581866 3.183034 12.516533 2.0
11.8016 2.8981 -15.4366 1.0
