# .PCD v0.7 - Point Cloud Data file format
VERSION 0.7
FIELDS x y z label
SIZE 4 4 4 4
TYPE F F F U
COUNT 1 1 1 1
WIDTH 1501
HEIGHT 1
VIEWPOINT 0 0 0 1 0 0 0
POINTS 1501
DATA ascii
6.60205 9.91485 27.291851 2.0
-1.65405 16.6747 6.4898 2.0
-1.82935 16.56275 8.56425 2.0
-9.22405 20.05335 -4.87955 1.0
-0.89615 16.750801 18.297625 0.0
2.1178 8.082171 25.48871 2.0
4.49335 9.87135 22.83625 2.0
-9.03065 18.606649 -5.98875 1.0
-2.31375 21.24505 -30.977551 3.0
17.15527 -8.489369 53.669727 2.0
7.9552 8.099899 33.305882 2.0
2.3869 18.73695 -3.16145 2.0
2.50465 -5.12765 41.618 2.0
-4.342307 13.454164 34.293079 0.0
0.76775 22.56805 -46.98315 3.0
-6.90567 22.33317 -4.70957 1.0
1.342883 19.718651 -11.038417 2.0
-2.00455 22.50695 -43.266651 3.0
16.057949 -7.31655 51.185749 2.0
-0.0938 20.707251 -37.239799 3.0
-17.695938 21.299526 1.48865 1.0
0.81905 20.339849 -39.59045 3.0
11.069674 2.683472 42.874405 2.0
-7.44285 18.758249 -8.47895 1.0
1.1447 21.889 -38.7262 3.0
3.481273 5.736417 30.105682 2.0
17.141983 -16.361715 53.440552 2.0
-6.46185 23.44335 -3.51885 1.0
3.32435 20.30875 8.460899 2.0
-2.57145 12.81385 27.929951 0.0
-17.647551 24.38435 15.75925 1.0
-2.705136 22.657606 -9.967065 1.0
-1.83575 11.17965 21.37055 2.0
-3.100884 21.823381 -13.50735 1.0
6.73825 12.22285 23.075649 2.0
-1.55515 20.904968 -28.257513 3.0
0.5339 16.619101 -6.709 2.0
0.41645 21.33305 -48.98595 3.0
0.911358 20.900658 -32.085251 3.0
0.07055 21.699402 -26.04705 3.0
3.7493 19.124401 8.8274 2.0
-21.898237 25.57535 11.531479 1.0
2.55595 19.515301 2.1098 2.0
1.45035 14.98465 -0.88615 2.0
2.5364 1.0294 36.216652 2.0
5.451983 17.46615 14.118851 2.0
15.93291 -6.88621 51.524151 2.0
15.064951 -9.91787 49.784988 2.0
5.50925 8.60655 27.017651 2.0
12.651331 -1.29037 46.521809 2.0
5.80955 15.44735 15.16305 2.0
-1.4714 15.086 11.4833 2.0
-20.72031 24.667011 8.072809 1.0
-16.704821 24.245207 13.71198 1.0
-1.59275 17.30295 0.10995 2.0
-0.53845 22.364651 -16.271851 1.0
-0.497117 13.721133 11.712501 2.0
-4.22135 16.74855 -13.05725 1.0
-0.842725 16.843575 16.495275 0.0
-1.60255 22.03035 -15.95495 1.0
-17.343651 19.0548 -1.5059 1.0
2.07265 13.32225 8.91825 2.0
13.81315 -0.44885 48.479252 2.0
5.15695 14.666917 14.518716 2.0
-8.30723 20.940521 -5.52215 1.0
1.10225 10.28745 20.580517 2.0
-17.29525 17.754049 -2.43885 1.0
7.48295 5.34045 35.354252 2.0
-11.699428 22.861763 6.462805 1.0
-1.41825 20.799749 -32.423649 3.0
4.123917 19.503017 10.367717 2.0
-0.898112 5.89544 29.946127 2.0
0.75285 20.915228 -25.543991 3.0
5.5129 4.35355 33.500599 2.0
-1.27445 18.71785 -1.64615 2.0
-21.9151 24.025551 7.50645 1.0
-6.4699 15.9507 -10.4142 1.0
2.488283 12.144383 13.96445 2.0
10.41285 -14.13995 51.421848 2.0
-2.04855 22.15575 -13.19415 1.0
5.58355 8.08755 28.088051 2.0
0.49195 22.098999 -57.635902 3.0
-3.89635 19.289816 -14.61515 1.0
9.658924 -1.714586 42.326633 2.0
1.78145 16.717751 -5.54465 2.0
2.28965 15.20975 2.73935 2.0
0.9384 16.258751 -7.2129 2.0
8.83775 0.14775 40.547791 2.0
3.5313 5.545 30.84 2.0
0.31995 18.182751 3.00145 2.0
0.630917 21.01965 -51.707916 3.0
-3.927117 23.731483 -6.064951 1.0
-0.28345 20.84845 -43.86425 3.0
-1.88815 21.293074 -36.858849 3.0
-1.97895 22.620449 -10.80815 1.0
1.76125 18.92415 -9.65925 2.0
-21.02215 21.39595 2.41585 1.0
-2.19125 21.387251 -35.414051 3.0
1.63731 19.11025 -10.46947 2.0
2.22645 14.81825 1.39835 2.0
0.84195 19.293049 -25.481701 3.0
4.507583 5.866933 30.696486 2.0
0.10775 15.18355 3.32055 2.0
-21.60915 24.48225 8.59235 1.0
-2.15985 15.70955 16.37545 0.0
-18.462915 24.332718 9.860116 1.0
0.86915 22.351349 -56.040848 3.0
17.115421 -13.693121 52.261749 2.0
1.28885 10.874226 18.464176 2.0
0.837917 19.519384 -27.670883 3.0
-0.01025 21.53895 -46.965851 3.0
2.8808 14.898001 6.2952 2.0
-2.70413 11.134211 22.89957 2.0
-0.550917 13.500783 13.114717 2.0
-10.45895 22.82235 4.02115 1.0
1.490905 1.464261 35.477341 2.0
11.710968 -14.099151 50.918453 2.0
14.520143 -2.096471 49.682686 2.0
-2.15965 14.78655 18.27935 0.0
-2.25875 21.81995 -15.59395 1.0
-0.4343 22.70355 -15.680901 1.0
-1.70095 21.553782 -41.154251 3.0
2.49557 10.54407 19.16819 2.0
-0.947075 16.861649 23.123375 0.0
13.80405 -17.12175 54.174648 2.0
-16.275801 21.9403 2.6227 1.0
-1.673117 12.684051 25.65505 0.0
6.31755 10.19055 24.67285 2.0
4.6565 3.9934 33.311302 2.0
-0.3141 17.883549 5.37845 2.0
1.69185 8.476837 24.532688 2.0
2.70325 13.58125 8.97895 2.0
-6.27005 19.94235 -9.821717 1.0
-0.09115 17.107365 17.483679 0.0
19.290514 -21.920868 57.127029 2.0
-1.4355 13.915626 16.096926 2.0
-15.71075 22.310919 3.379717 1.0
0.58335 -2.23665 38.821049 2.0
2.38185 11.76155 15.79075 2.0
-0.73025 19.228251 -19.903749 1.0
-0.98335 18.39415 1.33305 2.0
-6.17755 22.90015 -4.02405 1.0
-4.97545 16.649549 35.520149 0.0
5.8871 13.306 19.159 2.0
1.51115 17.118132 13.520515 2.0
-0.56305 24.251051 -54.728851 3.0
-0.61865 22.575951 -11.34675 1.0
-1.33205 16.4995 2.72355 2.0
-1.316617 22.073549 -30.868383 3.0
-1.80535 16.619551 25.98645 0.0
7.33105 14.66705 20.15345 2.0
-2.15855 15.73875 14.93305 0.0
1.053775 20.331425 -35.835499 3.0
1.76435 18.25885 -9.40725 2.0
-1.095825 23.433701 -50.062126 3.0
-17.317749 23.65855 7.8353 1.0
-5.83865 24.405649 -0.75735 1.0
-13.47685 16.275949 -6.13735 1.0
7.85965 13.734485 22.474815 2.0
-1.46675 17.60615 -4.40515 2.0
11.101005 -3.920786 44.512337 2.0
-8.68155 20.087648 -5.698783 1.0
-1.302617 8.104417 26.51895 2.0
8.23925 0.32557 39.73011 2.0
6.59385 15.45125 18.067949 2.0
-0.60945 18.59075 -20.75115 1.0
6.891835 10.696236 25.709551 2.0
-8.223101 22.266649 -2.28985 1.0
1.07485 -2.85725 39.18935 2.0
-0.2624 17.448849 11.099501 2.0
0.90905 11.107399 18.119467 2.0
3.74765 16.888216 5.179483 2.0
1.128117 19.510717 -17.173815 3.0
1.51707 14.47175 4.67223 2.0
-20.516518 23.206049 4.77615 1.0
-0.336575 2.31405 34.685425 2.0
-1.36245 17.623949 -5.34485 2.0
-19.48595 24.60285 9.67305 1.0
-1.47075 20.916349 -36.068474 3.0
-0.96385 22.247549 -29.46335 3.0
-1.306775 17.294575 6.923275 2.0
0.48 21.057449 -39.902351 3.0
11.00085 1.95315 42.909351 2.0
-3.92075 10.87765 24.23415 2.0
0.089283 2.57545 34.191586 2.0
-1.0926 24.22945 -54.57655 3.0
-0.492164 12.304364 16.532978 2.0
4.85825 5.0728 32.19685 2.0
-4.869 17.114151 -12.32795 1.0
24.5329 -22.341551 57.643425 2.0
9.303426 -7.939163 46.055851 2.0
5.88675 -6.93569 44.655926 2.0
21.889685 -20.899384 56.441681 2.0
6.85775 13.99595 20.26335 2.0
-1.54345 16.432949 5.53665 2.0
0.23755 19.171949 -29.15995 3.0
-1.4866 12.328 18.68615 2.0
-15.107318 20.478149 -0.654083 1.0
5.6406 7.1739 29.715549 2.0
9.37435 -13.5602 50.483902 2.0
-1.491917 12.743816 24.232718 0.0
-0.3147 21.744026 -47.869026 3.0
-0.76395 23.619949 -49.029949 3.0
1.49125 21.87315 -41.52985 3.0
1.78645 15.71495 -4.64625 2.0
14.38695 -6.36485 48.847149 2.0
-18.875015 24.343451 9.27395 1.0
-1.29005 9.73165 23.15505 2.0
1.10135 21.64085 -42.370102 3.0
-0.301236 22.228304 -31.143738 3.0
1.527083 17.735785 5.890017 2.0
-15.289833 23.350836 8.24525 1.0
0.314164 17.887205 7.699479 2.0
-5.70265 23.82165 -3.99945 1.0
1.091117 23.312216 -56.070354 3.0
8.12225 -1.16545 40.806999 2.0
-3.8759 20.8818 -15.06265 1.0
9.539249 5.511928 38.520557 2.0
0.878117 21.166315 -49.712383 3.0
10.071875 -2.907675 43.148354 2.0
-24.691965 25.63348 12.06215 1.0
14.013217 -6.314617 48.375916 2.0
7.8502 13.33825 23.3517 2.0
1.19615 19.55665 -15.27845 2.0
0.18585 23.64345 -49.389851 3.0
-12.85895 17.293926 -5.0869 1.0
1.9506 13.906599 6.285775 2.0
-13.63405 22.720949 8.20735 1.0
-0.7013 21.656025 -46.630398 3.0
-14.35715 18.142448 -4.02435 1.0
1.129383 23.28495 -56.933483 3.0
5.295279 5.871265 30.697134 2.0
-1.54125 23.674 -58.483498 3.0
-1.2961 22.417351 -57.297451 3.0
-2.21965 20.925051 -20.86375 1.0
-4.26225 13.54965 33.326302 0.0
15.886749 -4.89239 51.703087 2.0
-23.269449 26.18375 14.80795 1.0
13.172982 -1.061017 47.827351 2.0
-2.23835 16.720175 -18.0651 1.0
3.18725 12.49135 10.69795 2.0
-6.61455 14.38525 38.22665 0.0
-1.63215 17.29665 1.09365 2.0
19.220301 -14.337151 53.989899 2.0
11.119384 -9.919 47.647915 2.0
-2.66165 5.8835 30.78755 2.0
-13.5071 18.289551 -4.2508 1.0
-5.0727 14.88085 35.159901 0.0
15.494349 -16.075951 52.763947 2.0
0.99595 21.95215 -36.111752 3.0
-9.079599 20.935699 -4.467975 1.0
-0.66525 20.715651 -13.79095 1.0
1.29785 13.50835 10.16885 2.0
-1.82855 14.97695 15.98165 0.0
4.615417 18.339216 11.846583 2.0
-7.32965 24.274515 2.946017 1.0
-10.36545 23.58415 9.46765 1.0
-0.92585 21.77685 -16.702551 1.0
-10.2326 23.65325 7.6868 1.0
-1.6185 22.489349 -42.329597 3.0
-12.685683 23.657799 11.47795 1.0
0.05285 15.58245 1.36895 2.0
-3.64815 16.29085 -13.88195 1.0
8.49205 14.45885 22.22035 2.0
-0.28793 21.965611 -28.53175 3.0
-5.79965 14.97265 -11.27775 1.0
0.925793 9.286536 22.901449 2.0
-0.05025 16.83345 -6.07205 2.0
0.7224 20.569225 -15.458549 2.0
-13.09489 21.558971 1.32413 1.0
7.01825 11.70975 24.855049 2.0
-22.48473 22.865442 3.9046 1.0
0.40465 13.15555 11.48815 2.0
-0.62275 7.57935 26.99435 2.0
-14.901075 17.081001 -4.48155 1.0
0.0765 19.07295 -23.094151 3.0
0.8815 21.755699 -32.736702 3.0
-3.473675 23.440575 -6.851125 1.0
15.64125 -4.689583 51.281998 2.0
-11.904725 19.722698 -2.685975 1.0
-5.48185 25.05485 -1.45105 1.0
-0.5057 23.281826 -45.474724 3.0
0.889683 22.297918 -46.031616 3.0
19.86495 -11.98865 55.512749 2.0
5.75865 9.77395 25.55155 2.0
-0.23161 0.10251 37.078693 2.0
-22.085304 25.318295 10.075039 1.0
2.07115 14.85475 -0.12535 2.0
-2.80435 20.965851 -15.93005 1.0
-13.068975 22.716024 6.47915 1.0
7.22405 17.71505 16.561649 2.0
0.3061 20.550499 -13.77985 2.0
12.59495 -16.76465 53.851452 2.0
-2.48535 12.076817 21.2904 2.0
15.728416 -6.295534 51.292313 2.0
3.123375 0.1321 36.959923 2.0
0.89255 14.110149 7.8786 2.0
-2.32585 9.7838 24.67865 2.0
-14.92165 23.176649 10.39035 1.0
7.07445 8.57915 30.84145 2.0
-0.99415 18.58955 2.48575 2.0
0.85785 22.107651 -18.99115 3.0
11.50193 6.50581 40.878368 2.0
6.49115 5.41315 33.022449 2.0
-4.046317 13.160716 33.803814 0.0
10.99515 -15.02805 52.71685 2.0
-5.82015 15.08035 36.383698 0.0
-5.5626 24.54525 -2.51335 1.0
-0.56885 20.99015 -19.454651 1.0
-14.094851 18.963051 -2.9855 1.0
-16.506075 23.902374 12.338224 1.0
-1.53675 15.93855 15.29035 0.0
-3.42245 21.07975 -15.384251 1.0
4.09325 13.72875 13.36035 2.0
-9.62485 23.04425 3.41385 1.0
1.22545 22.161249 -42.13615 3.0
0.70925 13.38425 10.20855 2.0
0.46625 22.041649 -56.516899 3.0
1.92215 20.14045 -0.52145 2.0
8.83229 10.318251 34.498928 2.0
-9.514099 24.103226 8.303751 1.0
-1.64719 21.885309 -35.966171 3.0
-8.83775 21.805849 -2.41385 1.0
-1.62285 16.311649 12.297899 2.0
10.62165 -2.524033 43.725651 2.0
12.579 -3.3202 46.532551 2.0
6.94645 5.16065 34.617649 2.0
0.2705 21.844376 -30.476099 3.0
1.40275 10.00475 21.28315 2.0
9.866817 -4.55785 43.931812 2.0
21.055576 -21.665125 56.574249 2.0
-1.61595 17.08135 -1.00925 2.0
7.510384 8.126617 31.560282 2.0
-7.72465 20.49555 -6.35445 1.0
1.20965 17.52215 -14.36475 3.0
-1.21095 16.48505 1.26445 2.0
5.913575 0.284162 38.090626 2.0
-5.342617 16.615616 35.122448 0.0
-19.36735 18.984449 -0.88645 1.0
-0.09395 17.221151 24.037252 0.0
-21.706551 23.49935 5.1896 1.0
-2.17885 11.20435 22.328251 2.0
10.687176 -5.5082 44.960625 2.0
1.31975 15.30975 -1.6391 2.0
-0.0535 20.463825 -3.0988 2.0
15.714775 -7.2976 50.712502 2.0
0.2651 21.925549 -57.096699 3.0
-17.706949 24.875126 16.704 1.0
16.10635 -15.106784 52.441418 2.0
-0.66715 18.090149 -11.51945 2.0
-2.0272 18.680801 -18.38875 1.0
-6.73715 22.980249 -2.72035 1.0
6.121779 2.93708 35.519501 2.0
-18.901417 21.674217 2.14535 1.0
4.4785 19.116451 11.1608 2.0
-0.717475 15.154776 6.098025 2.0
-8.08635 14.083591 42.129669 0.0
-0.070125 20.682974 -12.9055 2.0
-1.707117 21.99045 -47.301483 3.0
-0.3798 20.385399 -8.517099 2.0
-6.6844 23.902599 0.2957 1.0
-1.699425 2.958275 34.278126 2.0
-7.26175 23.41345 -1.80095 1.0
-3.13943 17.064428 31.862829 0.0
1.523875 15.2837 0.304425 2.0
7.47535 -10.013916 47.674915 2.0
-2.846217 16.705452 30.132349 0.0
7.60055 17.41695 17.057449 2.0
2.514917 17.882383 -3.118717 2.0
-5.89625 13.66885 40.710251 0.0
3.30675 19.847 9.21675 2.0
-1.62575 21.62635 -27.41185 3.0
20.503016 -15.50845 55.460052 2.0
-3.57165 13.65605 31.415251 0.0
1.12165 21.518484 -50.235382 3.0
6.68535 11.69985 24.024651 2.0
1.60865 17.249451 12.20805 2.0
0.71605 21.37365 -23.5816 3.0
-0.83485 22.22665 -17.162649 1.0
1.10055 22.597349 -51.189751 3.0
-4.19175 15.92285 33.22805 0.0
-18.779551 22.99485 4.18255 1.0
3.4727 1.423 35.84845 2.0
7.85495 15.35385 19.18635 2.0
9.573684 2.45755 40.24828 2.0
12.245178 -0.50845 45.700951 2.0
7.252567 13.170101 21.478468 2.0
-0.3448 20.5133 -39.6642 3.0
-4.091583 15.251517 31.721685 0.0
-1.7024 22.341099 -51.856102 3.0
1.32985 12.126949 14.81665 2.0
-1.3622 22.674374 -52.632874 3.0
23.59285 -21.77075 57.20105 2.0
-1.57825 15.70105 13.959101 2.0
-15.59635 22.79645 6.93485 1.0
-4.21715 17.322783 -13.350417 1.0
8.288215 13.12786 24.105904 2.0
1.55105 16.615549 -5.00675 2.0
10.730963 2.7075 42.245075 2.0
-15.329124 21.673849 1.985225 1.0
-1.25825 18.76495 -3.83345 2.0
9.093939 -4.112861 43.251751 2.0
1.44495 16.773451 -10.85055 2.0
0.16405 20.066549 0.35025 2.0
1.3065 17.460751 -12.025351 2.0
1.34975 20.051149 -12.63385 2.0
3.65225 14.91115 8.19055 2.0
10.048783 5.711383 39.318062 2.0
4.0029 17.25185 7.4937 2.0
-1.46733 21.87237 -29.530811 3.0
-2.53995 17.07855 29.54705 0.0
-5.2975 21.909575 -8.270675 1.0
1.01675 19.694384 -19.62245 3.0
-17.20715 24.194851 13.96495 1.0
-0.52315 12.671117 20.499884 0.0
-0.1091 18.533901 -22.455349 3.0
-11.70915 23.18935 8.60225 1.0
-0.05875 20.636351 -11.99815 2.0
0.79105 23.736851 -54.690948 3.0
11.28415 -12.12895 48.99725 2.0
0.276025 20.2614 -33.368023 3.0
-22.481451 24.145651 7.701283 1.0
7.713659 6.089968 34.508366 2.0
-6.23785 24.684549 0.8608 1.0
7.28935 11.11635 27.32205 2.0
-19.100399 20.14435 0.363175 1.0
-16.124399 23.547375 7.4539 1.0
3.492517 10.490849 18.542051 2.0
3.04645 -6.39105 43.410149 2.0
0.73645 18.602551 -24.671551 3.0
11.913607 -12.05195 49.060589 2.0
-4.51575 25.095316 -3.312483 1.0
-7.61355 15.69345 -9.49695 1.0
1.1593 22.2645 -57.274452 3.0
0.920125 21.298 -35.370125 3.0
-0.70295 3.363883 33.288982 2.0
-1.25833 18.092951 8.10303 2.0
-1.510917 22.845383 -42.949352 3.0
-8.88605 22.804951 0.69125 1.0
-22.098049 22.463449 4.09215 1.0
1.90375 10.237984 20.650717 2.0
10.65665 -14.36845 51.84285 2.0
-12.34945 23.57715 12.83405 1.0
-0.98515 14.03665 13.61475 2.0
-11.66515 16.40015 -6.31405 1.0
5.95865 10.8859 23.952549 2.0
-5.6998 21.119024 -9.491751 1.0
-9.49545 15.47955 -8.2379 1.0
5.734772 6.064694 30.905518 2.0
-24.522352 25.219717 9.88295 1.0
-3.10285 16.493851 29.19425 0.0
-3.94875 14.261017 31.858252 0.0
-0.89777 21.53017 -44.89035 3.0
8.16175 9.2491 33.094398 2.0
-1.05805 18.278801 -10.383949 2.0
-0.51785 21.21455 -41.565552 3.0
0.90165 13.78055 8.59125 2.0
-0.351683 19.016983 -22.520918 3.0
-1.88335 15.32765 12.89885 2.0
2.02625 20.74575 4.66455 2.0
22.732899 -24.112652 57.965652 2.0
-4.110416 16.536615 33.581387 0.0
-17.466984 24.357618 15.068616 1.0
-2.00405 16.285151 13.26445 2.0
-15.078251 22.457352 5.08365 1.0
-0.942725 16.906376 -1.69395 2.0
3.555225 17.914476 5.12305 2.0
-2.77905 16.960951 30.84165 0.0
-19.542049 24.992849 12.09125 1.0
3.23635 12.5455 11.849951 2.0
14.85365 -13.522525 51.12595 2.0
-1.13451 19.282711 -21.301691 1.0
1.7302 9.2781 23.14665 2.0
0.30855 21.930279 -32.05024 3.0
-2.26705 20.36635 -20.36915 1.0
17.449217 -9.733849 52.919449 2.0
-7.5506 23.668999 1.96455 1.0
-1.063375 12.71245 17.260174 2.0
2.09265 -2.05261 38.674751 2.0
-7.043325 22.492374 -4.0746 1.0
25.60005 -24.064251 58.21455 2.0
5.94555 4.85805 33.312248 2.0
7.76815 8.29013 32.29969 2.0
16.498249 -10.69575 51.46225 2.0
2.18415 12.55415 12.90865 2.0
-11.07675 21.629749 0.14525 1.0
-3.875825 14.923374 30.667824 0.0
-17.890522 24.492048 11.473722 1.0
-17.08975 23.157351 6.20915 1.0
-6.56475 21.993349 -5.19335 1.0
10.77055 6.2087 40.041 2.0
-1.3703 21.126699 -38.702652 3.0
-10.88675 23.575251 10.98465 1.0
-2.1419 14.509026 21.712599 0.0
1.09375 18.314751 -18.67115 3.0
3.66695 18.061726 6.7195 2.0
-2.01055 21.83585 -32.640549 3.0
-0.44355 18.166451 -14.02565 2.0
-1.6139 16.926399 3.0188 2.0
17.043949 -7.31945 53.095051 2.0
10.3116 -13.709984 50.369598 2.0
1.16665 17.83935 10.43835 2.0
4.5432 15.302725 11.322226 2.0
2.7075 7.28245 27.459202 2.0
-6.27151 22.44729 -5.57723 1.0
-23.537951 24.605249 7.70705 1.0
-1.2152 21.623901 -25.097599 3.0
7.094864 0.118736 38.982792 2.0
-2.67815 21.846149 -14.63185 1.0
1.528725 18.50985 -12.10605 2.0
-2.07395 14.710526 20.955851 0.0
-2.13671 17.318491 30.03857 0.0
-1.19415 18.42835 9.23955 2.0
0.4151 12.21895 15.152349 2.0
11.34895 5.49715 42.30925 2.0
8.97785 3.7342 38.644852 2.0
-21.9025 24.677601 9.0722 1.0
0.9623 20.328449 -8.142475 2.0
-0.24405 19.564751 -30.49305 3.0
-19.477568 24.49045 8.268334 1.0
-8.723575 24.515499 6.295375 1.0
1.108028 4.332901 31.907051 2.0
4.14625 16.317652 8.077075 2.0
-1.95075 22.339149 -38.091351 3.0
-3.56765 15.57105 30.93495 0.0
2.09295 5.986625 29.297874 2.0
-4.72425 22.355448 -8.300651 1.0
-23.788851 24.286249 8.46295 1.0
-4.30855 21.57625 -12.47115 1.0
-22.892689 23.51659 4.56701 1.0
-16.895628 19.888432 -0.67647 1.0
0.74445 19.029551 -27.41515 3.0
-2.0472 21.164551 -32.0215 3.0
0.94605 23.312901 -53.586548 3.0
-2.13405 21.705351 -39.620251 3.0
-13.90685 22.199249 3.16675 1.0
-16.284092 23.48089 8.10757 1.0
-0.66825 19.43535 -1.48845 2.0
3.4641 18.268749 2.71595 2.0
4.72715 19.0772 11.885201 2.0
-1.546525 22.70715 -44.0411 3.0
-0.76115 20.29125 -33.011349 3.0
16.688108 -18.16943 54.429329 2.0
22.075918 -21.480148 56.687916 2.0
-0.69925 18.62855 -14.76975 3.0
-1.0799 17.323349 -0.0203 2.0
3.71675 13.40735 12.01375 2.0
-4.69815 16.499149 -12.336575 1.0
-1.838625 11.519625 20.845526 2.0
1.10225 20.076351 -9.52927 2.0
-8.673984 22.220652 -1.279417 1.0
-1.35845 21.516251 -25.82345 3.0
4.07425 14.22575 12.23565 2.0
0.301925 18.568251 -18.579226 3.0
22.4953 -17.361176 56.573875 2.0
-1.78875 16.725651 7.59735 2.0
4.509583 12.738683 16.686815 2.0
-5.53063 22.904329 -5.73193 1.0
-1.60565 22.19755 -43.669651 3.0
8.276934 7.917267 34.288181 2.0
3.30255 15.32305 5.56215 2.0
3.643 12.31805 15.3387 2.0
6.17985 13.29865 19.826349 2.0
14.6367 -4.731383 49.469471 2.0
-4.00025 20.79195 -15.84985 1.0
-14.71555 22.2512 3.38655 1.0
-1.463183 16.529284 4.047917 2.0
-1.597 20.62845 -24.2743 3.0
0.33255 17.592951 -12.39785 2.0
-3.0698 6.92535 29.2731 2.0
-5.42635 20.275101 -11.7071 1.0
1.92215 16.687283 16.327185 2.0
-8.34235 19.496584 -6.572183 1.0
4.18705 13.04485 14.09385 2.0
-1.71365 14.11415 15.41405 2.0
-2.09935 22.79855 -54.820549 3.0
-20.7017 20.555275 1.3035 1.0
3.86853 -0.32799 37.656647 2.0
19.77095 -22.441151 57.484051 2.0
-1.3777 23.177799 -48.6231 3.0
4.26295 11.2921 19.236099 2.0
9.82915 9.13725 37.06105 2.0
0.48885 24.426483 -55.963917 3.0
-2.97625 12.5261 22.023602 2.0
6.503764 16.302277 16.655237 2.0
0.953467 20.499916 -31.169716 3.0
9.90335 -2.96685 42.670052 2.0
1.56675 19.743715 -6.896483 2.0
8.20395 10.37055 31.305849 2.0
7.280175 1.909225 37.365601 2.0
16.3088 -19.932899 56.276848 2.0
1.14915 22.287882 -56.67458 3.0
-15.64575 23.5886 11.6975 1.0
0.08955 21.5658 -45.964951 3.0
-19.88415 19.69475 -0.37875 1.0
0.4659 17.1553 24.898676 0.0
-16.822149 22.64065 5.20485 1.0
-1.740825 19.890251 -20.546524 1.0
0.5166 1.2773 35.747177 2.0
18.550652 -10.67665 55.098648 2.0
-7.61995 22.50845 -2.81265 1.0
-1.42085 19.99935 -22.415951 3.0
1.35035 20.181351 -8.60175 2.0
-2.19805 15.17585 17.51675 0.0
15.235799 -8.733267 49.913467 2.0
0.28795 -0.82965 37.547302 2.0
-17.061951 24.157551 11.58045 1.0
-6.68363 21.490091 -6.905931 1.0
-14.925751 23.153618 9.310017 1.0
7.86815 10.74975 32.209549 2.0
-7.84585 15.05735 -9.8482 1.0
-12.49415 19.232149 -3.288425 1.0
-19.31547 25.255911 15.694211 1.0
-1.8632 10.739349 22.23955 2.0
-8.64345 22.69525 2.03905 1.0
2.726317 18.719984 -0.141883 2.0
-1.20755 18.73605 -2.87715 2.0
0.27215 9.90655 22.573151 2.0
1.9041 17.293499 -6.55125 2.0
-18.900885 25.212183 17.127684 1.0
2.5356 8.11685 25.8186 2.0
2.75365 12.8839 9.469601 2.0
-1.09425 9.57565 23.75325 2.0
7.40825 10.18785 27.98605 2.0
-2.24185 21.44895 -34.156448 3.0
2.9623 18.591351 2.0359 2.0
-2.678983 15.097683 25.236483 0.0
-1.4416 2.1108 34.812798 2.0
-20.78175 23.646351 6.50735 1.0
1.245683 17.879084 -13.704917 2.0
4.01355 0.75575 36.827251 2.0
-3.61195 14.088249 30.547798 0.0
-2.212 15.08465 22.406052 0.0
-14.50218 23.915972 13.290469 1.0
0.29985 18.22245 -16.183651 3.0
-11.79755 21.34585 -0.55455 1.0
0.468875 21.777525 -47.123501 3.0
7.71195 11.92675 27.36895 2.0
0.3815 13.72665 9.58285 2.0
2.93355 6.3864 28.74445 2.0
-0.312 20.349525 -38.697899 3.0
1.087675 8.292424 25.232365 2.0
-6.29875 24.621849 -0.24355 1.0
2.73215 10.79225 18.339951 2.0
7.698063 -8.860075 46.546574 2.0
-8.21835 22.00485 -2.99055 1.0
-8.9187 23.7216 5.84685 1.0
1.60335 23.31035 -57.12545 3.0
4.526817 16.108717 10.29775 2.0
-1.61635 16.37545 7.17005 2.0
1.32355 20.662149 -27.522751 3.0
1.07285 10.29775 19.665449 2.0
-1.04997 24.062229 -56.66581 3.0
6.56705 -3.54735 41.690948 2.0
-2.20485 18.015751 -17.91925 1.0
1.869617 17.275517 7.122316 2.0
-2.4869 20.412399 -18.987598 1.0
3.98355 10.12495 18.914351 2.0
9.00415 15.83315 19.88245 2.0
24.675451 -21.748451 57.581051 2.0
9.956278 4.680036 39.903107 2.0
6.09475 9.94715 25.976749 2.0
-22.720053 24.095583 6.567783 1.0
9.122438 10.104862 35.360374 2.0
-0.89935 2.84585 34.0298 2.0
-0.31085 19.671051 -27.873199 3.0
5.00485 9.02425 24.578449 2.0
2.71325 15.94185 11.12605 2.0
1.54915 9.54765 21.771749 2.0
24.6784 -20.207251 57.385601 2.0
-6.871666 21.869835 -5.651516 1.0
-1.51275 22.986349 -9.43025 1.0
-12.673265 21.907364 1.467893 1.0
5.91155 14.10583 17.307629 2.0
4.941325 14.478951 14.090574 2.0
6.081417 16.68965 15.712517 2.0
2.8712 -6.1003 43.022751 2.0
-0.51845 21.532108 -20.32011 1.0
-12.27855 21.79615 2.54695 1.0
14.088222 -15.500336 52.216675 2.0
-6.4482 17.245899 -10.1553 1.0
-6.565325 20.689949 -8.8985 1.0
-13.916516 20.881884 0.125883 1.0
-1.660417 21.77305 -44.72752 3.0
-2.42475 18.099251 -17.406799 1.0
-2.92715 16.286051 28.107849 0.0
5.266577 6.34685 29.716278 2.0
-0.9179 16.842899 22.614151 0.0
-3.27995 13.36905 20.562349 2.0
-3.08435 14.46515 18.767349 2.0
-1.49715 17.060471 26.856373 0.0
1.51885 20.620449 2.36755 2.0
-1.19865 23.56415 -52.25095 3.0
-1.35045 20.043051 -23.769751 3.0
0.071725 17.875977 6.8309 2.0
-22.899719 25.4758 10.677351 1.0
1.234617 15.722717 -4.285083 2.0
0.21045 11.62555 17.26145 2.0
4.52405 -1.89693 39.288689 2.0
2.380883 17.110317 -2.96155 2.0
2.0935 4.6225 31.776749 2.0
-1.93715 20.61025 -27.42915 3.0
-21.894894 25.440264 10.664935 1.0
-17.211149 24.162849 12.71665 1.0
5.86025 1.36915 36.974751 2.0
16.363684 -7.84865 52.096882 2.0
4.096775 17.462675 8.31455 2.0
-8.59755 23.29565 3.70165 1.0
-6.5262 20.31525 -9.3143 1.0
4.98025 4.02865 33.785751 2.0
-13.2924 20.838001 0.078975 1.0
0.10005 5.7835 29.779049 2.0
12.00905 -3.0932 45.447849 2.0
-13.33795 23.743549 13.69755 1.0
2.14747 16.722672 8.32117 2.0
-20.887075 25.824175 16.094526 1.0
-12.56005 22.25655 5.90155 1.0
-5.8611 17.4998 -10.9203 1.0
-0.4763 20.36145 -9.013001 2.0
-0.44885 17.768551 -20.72785 3.0
-9.05805 16.269951 -8.00545 1.0
-12.09439 21.816669 1.32615 1.0
-1.88565 22.736349 -46.983051 3.0
-2.13515 16.500549 12.70625 2.0
-1.51585 16.531624 25.074425 0.0
-4.92345 22.53105 -7.57295 1.0
20.56745 -13.81315 56.519451 2.0
-2.1399 15.0899 19.87455 0.0
-4.51655 22.04545 -9.09875 1.0
0.84355 19.688116 -29.051249 3.0
-2.4798 13.540174 26.068026 0.0
-1.32 22.356976 -34.317123 3.0
12.056633 -1.732133 45.540882 2.0
0.091075 17.052975 19.147652 0.0
-14.3543 22.608601 4.0532 1.0
3.70755 -7.08465 43.780182 2.0
-0.083475 19.445225 -26.282425 3.0
8.91645 15.02025 21.668751 2.0
-14.112249 21.2901 0.90725 1.0
-21.131149 24.037001 7.51275 1.0
-0.21095 20.98595 -16.811449 1.0
-0.02315 14.95815 4.97425 2.0
6.57155 4.42775 34.42205 2.0
-2.124417 15.309616 21.678949 0.0
0.06255 24.530849 -54.91655 3.0
10.507921 -12.482421 49.36755 2.0
14.20575 -1.16645 48.93475 2.0
-12.098783 23.043951 7.914617 1.0
-0.884 17.43545 6.68695 2.0
-0.45375 24.20875 -53.934052 3.0
17.16715 -8.79435 54.315552 2.0
4.21755 14.39135 11.37255 2.0
8.03675 12.15285 26.328125 2.0
8.887788 12.516538 29.512325 2.0
-1.24147 16.298573 8.15809 2.0
0.882767 22.10495 -44.560318 3.0
3.940583 17.905783 5.943016 2.0
-1.278975 23.84885 -55.507877 3.0
2.33445 17.053949 -2.33695 2.0
-10.94925 17.05645 -6.43365 1.0
0.0972 22.467766 -35.74675 3.0
0.99235 22.634451 -58.082352 3.0
-1.305867 20.702326 -33.453556 3.0
-0.695 17.839951 -9.493999 2.0
0.091121 24.692295 -58.458019 3.0
20.2666 -22.34075 57.985699 2.0
1.3133 23.5422 -53.952248 3.0
-6.31641 19.085129 -9.89003 1.0
-1.92695 22.5373 -47.5812 3.0
-6.72925 25.333851 2.61195 1.0
20.858875 -20.071449 55.920525 2.0
1.32655 20.675249 -29.90535 3.0
-6.661183 21.276117 -7.513884 1.0
-0.3567 17.79015 5.90725 2.0
12.775384 -1.510783 47.070484 2.0
3.67895 -6.23995 43.23605 2.0
3.30945 13.735149 9.712601 2.0
22.907938 -17.290577 57.045067 2.0
-15.90521 19.524128 -1.67043 1.0
-0.70075 12.67205 15.707701 2.0
-1.034917 18.282249 -1.127917 2.0
2.691483 18.885033 0.495367 2.0
2.301583 -4.319283 40.642117 2.0
6.31835 10.02805 26.43725 2.0
-0.35515 7.04815 27.806351 2.0
5.88404 13.71333 17.70896 2.0
-18.937576 24.956398 14.483074 1.0
-1.619836 19.718092 -23.057251 3.0
-13.281232 16.515902 -5.654501 1.0
0.76715 19.62995 -33.405651 3.0
-1.259713 16.081825 8.935588 2.0
-21.91165 24.315451 8.22695 1.0
-9.13405 23.22555 5.12705 1.0
1.09265 17.116365 15.894408 2.0
-9.22005 22.602551 2.47035 1.0
-24.301588 24.709436 7.724475 1.0
-1.07355 19.01655 -0.85095 2.0
20.987949 -16.049549 55.836151 2.0
8.37765 3.46 37.848602 2.0
4.505416 14.882817 11.91275 2.0
2.99165 13.35365 9.41695 2.0
0.912583 20.715218 -40.468853 3.0
-3.29465 12.54125 21.43825 2.0
-0.083375 19.556349 -27.095875 3.0
-13.70271 23.30505 9.75717 1.0
8.432051 14.15785 21.755451 2.0
-1.49535 12.22205 25.569349 0.0
-0.90177 12.85245 19.896051 0.0
0.9139 20.65065 -30.621601 3.0
-1.1015 12.6682 22.3458 0.0
-21.51108 24.060207 6.729749 1.0
-10.506201 19.0882 -4.47655 1.0
0.12035 8.78475 24.344351 2.0
14.289933 -13.517749 50.928516 2.0
-18.744049 23.69685 6.41995 1.0
3.364575 17.91235 3.4657 2.0
1.25175 20.859949 -22.67795 3.0
-1.21685 17.115501 -20.47205 1.0
6.285236 -8.232721 45.753208 2.0
-0.482783 17.704584 27.062983 0.0
1.46785 21.41675 -38.49535 3.0
0.99645 12.15695 13.91695 2.0
2.679917 15.89775 16.87565 2.0
-0.32315 21.764751 -19.756451 1.0
0.722717 20.314615 -11.101583 2.0
-0.70001 23.703709 -49.702534 3.0
0.27305 13.23325 12.01685 2.0
-8.90535 19.15815 -6.07745 1.0
-0.10325 16.331785 -2.129617 2.0
-0.5534 16.404999 -1.67825 2.0
-0.75595 18.905949 -16.89115 3.0
8.98445 12.21575 31.75655 2.0
-0.886925 22.074451 -54.933899 3.0
-13.20155 19.00515 -3.56955 1.0
-0.691517 6.857616 28.241583 2.0
-1.893183 22.857048 -45.54398 3.0
-4.77165 20.414249 -12.58095 1.0
-7.4729 21.784599 -3.6985 1.0
-0.89245 22.530849 -10.39425 1.0
-1.772 20.965851 -20.278851 1.0
2.097038 2.04445 34.848137 2.0
1.068483 19.920816 -14.903216 2.0
-3.894383 9.486417 26.105917 2.0
-2.84195 13.46685 19.74795 2.0
-0.92551 16.723768 15.544749 0.0
3.60035 17.31275 3.52955 2.0
13.8232 -7.9337 48.375702 2.0
-1.487375 11.729025 20.23485 2.0
1.280225 17.642124 9.27875 2.0
0.68305 22.23315 -35.625549 3.0
-22.160151 23.60815 5.37235 1.0
-0.081925 20.744175 -14.110325 2.0
19.96385 -18.78265 55.216251 2.0
0.707883 21.907318 -37.780552 3.0
-1.72497 18.906551 -19.16791 1.0
15.01305 -2.66465 50.112751 2.0
-1.919783 22.082682 -33.89555 3.0
7.50025 11.32715 28.10535 2.0
1.63435 15.51845 -0.53405 2.0
2.76915 20.125351 8.18325 2.0
2.2698 19.479824 0.12665 2.0
-2.348325 22.103399 -13.8958 1.0
-1.00435 23.929251 -51.440151 3.0
12.965584 -3.096017 47.12785 2.0
-1.0359 1.31035 36.337799 2.0
0.289483 22.427917 -38.926151 3.0
-4.42425 16.95615 34.505951 0.0
-8.100349 24.298302 5.3379 1.0
-1.0156 18.834202 7.7593 2.0
-25.596251 25.45945 11.58365 1.0
0.26925 21.098949 -54.182503 3.0
12.8766 -8.441 47.7346 2.0
-0.9432 19.69125 -26.289717 3.0
-5.053083 21.161583 -9.67035 1.0
15.0396 -6.505434 49.745235 2.0
-20.91255 22.786749 3.928416 1.0
8.82505 15.19605 20.550751 2.0
-3.44065 14.92135 29.710701 0.0
2.3222 -0.33975 37.414551 2.0
1.05395 22.99535 -51.797951 3.0
-3.23255 23.77795 -5.46255 1.0
5.26725 13.948817 15.754085 2.0
-14.2642 21.55945 2.7293 1.0
8.467233 11.895734 29.527817 2.0
8.27495 -4.94635 43.629551 2.0
-0.82085 13.74965 12.54585 2.0
-4.151217 22.972816 -7.509716 1.0
-2.72875 20.476418 -18.287817 1.0
-2.28825 14.55825 18.70435 0.0
7.748675 12.692975 24.889275 2.0
18.007151 -20.73625 56.922749 2.0
7.292696 1.28055 38.07412 2.0
4.07915 3.3243 33.699501 2.0
3.95975 -5.55565 42.661949 2.0
-9.479325 21.914801 -0.6768 1.0
-0.5701 8.83695 25.1255 2.0
2.374775 17.528299 -3.871825 2.0
5.72515 18.166451 15.24515 2.0
1.15455 21.013149 -51.355949 3.0
0.713275 8.045275 25.713676 2.0
-9.15215 23.56135 4.26045 1.0
1.029128 20.88936 -35.673172 3.0
-3.525362 13.502913 30.342051 0.0
6.4174 6.9193 31.5219 2.0
9.00165 -5.41265 44.08815 2.0
5.505895 4.662017 32.840919 2.0
-2.01335 22.509649 -41.244549 3.0
4.262207 -7.31255 44.458092 2.0
-1.321 17.890182 9.098617 2.0
-15.503301 22.649599 4.4557 1.0
2.891205 6.078517 29.315996 2.0
-1.45335 21.357275 -40.753349 3.0
-0.10715 19.882151 1.31805 2.0
-1.11655 16.866329 24.106991 0.0
1.14875 20.191351 -17.774851 3.0
9.093176 9.486387 35.484074 2.0
0.8214 15.4206 0.58935 2.0
4.55285 13.60395 14.09875 2.0
-1.0947 17.098225 1.8733 2.0
-0.89935 11.88635 18.506849 2.0
0.72495 21.412251 -48.322048 3.0
-9.95395 15.64365 -7.77785 1.0
6.0806 11.698957 21.662035 2.0
-2.9089 15.3284 27.76255 0.0
4.80755 12.91295 17.137251 2.0
-0.6629 21.59515 -45.98275 3.0
10.96365 -6.92645 46.007347 2.0
5.97595 15.325917 16.230885 2.0
-0.7305 21.277651 -47.540649 3.0
25.600651 -25.026951 58.39835 2.0
0.80785 17.43655 24.06505 0.0
0.86385 20.22965 -12.64285 2.0
-1.65 17.973598 9.97105 2.0
4.82115 0.96975 37.04015 2.0
14.224584 -9.877749 49.13448 2.0
14.886733 -10.898251 49.928341 2.0
6.55405 11.04455 25.054251 2.0
7.83925 14.79575 20.58345 2.0
-2.77325 16.132116 28.895014 0.0
2.520917 -2.711783 39.334702 2.0
-1.59655 16.339849 23.224649 0.0
-1.4754 16.681475 3.4987 2.0
3.25705 19.076185 7.279267 2.0
20.095438 -21.916088 56.701332 2.0
0.836017 19.31905 -26.445948 3.0
1.741175 17.700224 -8.3183 2.0
12.732316 -3.916417 46.640667 2.0
-6.86855 14.738083 39.334682 0.0
-11.5076 23.727814 10.484475 1.0
-0.55575 21.014351 -20.253851 1.0
3.23015 15.08565 7.23605 2.0
2.22345 19.051399 -3.94715 2.0
-13.895267 23.119665 8.668075 1.0
-0.10619 21.315491 -54.924011 3.0
0.45735 20.645149 -19.519001 3.0
12.520194 -0.099739 46.30735 2.0
-4.2627 21.680302 -11.2353 1.0
-3.67605 21.917017 -11.705884 1.0
-4.50715 20.36945 -14.54085 1.0
-2.06345 14.60415 19.337851 0.0
20.61775 -21.899349 56.57225 2.0
12.284969 -13.328476 50.141064 2.0
-2.21475 11.98085 20.885349 2.0
-12.264882 22.378218 4.43505 1.0
-1.12215 21.6996 -49.306999 3.0
8.499749 13.724416 24.027948 2.0
-14.34395 23.456551 12.70345 1.0
-0.8811 19.131968 3.49265 2.0
-2.27555 21.722851 -38.349449 3.0
1.10855 22.144117 -58.304413 3.0
1.479917 17.03195 21.747917 0.0
1.51585 19.813551 -17.021351 3.0
-2.0607 4.24755 32.834675 2.0
-23.10475 24.8599 8.9617 1.0
2.297817 17.709118 -4.73315 2.0
1.92575 11.170401 17.772449 2.0
8.34435 15.56295 19.30065 2.0
0.487317 20.470083 -9.170283 2.0
-1.52299 22.663488 -39.362812 3.0
7.28925 12.70025 23.595751 2.0
2.15855 19.856951 1.98185 2.0
-18.706316 25.031683 15.05955 1.0
0.493375 19.736351 -28.066875 3.0
3.06745 11.7125 14.5318 2.0
-14.111971 23.436411 10.46041 1.0
-1.99355 5.09885 32.28775 2.0
7.323984 12.079516 25.135084 2.0
-7.52195 20.99085 -6.38545 1.0
-3.77785 12.76315 34.00415 0.0
-1.14135 23.92625 -57.566101 3.0
8.960921 1.691321 39.85268 2.0
8.438749 12.79175 27.567051 2.0
-16.096199 23.693699 13.0173 1.0
3.63545 14.76825 9.70045 2.0
-1.17695 20.44705 -32.6968 3.0
14.980416 -4.518416 50.474987 2.0
-3.4211 18.890099 -15.434326 1.0
15.710963 -18.545238 54.830139 2.0
-1.84229 14.10509 17.26033 2.0
20.997049 -17.28495 55.609451 2.0
14.333333 -5.500933 48.877216 2.0
1.86055 19.37085 -12.16535 2.0
2.04955 18.719349 -6.9732 2.0
4.697133 -6.645134 43.728985 2.0
-1.928 20.2509 -23.274849 3.0
17.12405 -20.636351 56.602551 2.0
12.235849 0.508125 45.566376 2.0
-1.107221 23.72735 -52.919666 3.0
-16.507151 24.404751 15.27535 1.0
23.02215 -22.447451 57.181549 2.0
8.648251 -6.23845 44.565102 2.0
1.20825 20.920851 -23.86025 3.0
18.717049 -19.51075 55.273716 2.0
-6.10405 23.636349 -2.97995 1.0
-2.3089 8.89505 26.05155 2.0
1.707075 9.480024 22.659325 2.0
7.148234 6.878983 32.519684 2.0
-7.10005 24.293249 1.12215 1.0
0.89265 19.680851 -24.754 3.0
5.98265 12.80545 20.224951 2.0
-7.500666 13.469258 42.719425 0.0
10.348599 8.305383 37.648148 2.0
-15.106308 24.274191 15.097835 1.0
-23.713051 25.649349 12.58555 1.0
2.21705 16.802549 19.16275 2.0
14.93495 -13.972876 51.438774 2.0
22.271 -15.71155 56.923248 2.0
-17.70315 23.83025 6.95335 1.0
2.59085 14.44745 4.80415 2.0
5.93455 8.27285 28.45435 2.0
0.85265 19.0788 -24.472851 3.0
-1.07045 22.316601 -16.111 1.0
-8.897349 19.493576 -5.6931 1.0
0.54545 20.79895 -18.477751 3.0
-24.030251 25.89575 13.48455 1.0
13.706384 -12.093133 49.695362 2.0
-6.03615 19.59655 -10.62655 1.0
1.32875 7.37995 26.75485 2.0
1.866383 -4.090761 40.093517 2.0
0.9029 6.082384 29.305916 2.0
8.68145 13.74935 22.96995 2.0
-0.41215 20.943951 -15.76635 2.0
-0.889025 19.911301 -29.849251 3.0
15.348832 -5.9005 50.454685 2.0
20.116871 -16.71619 54.858673 2.0
-1.25935 12.92715 20.804449 0.0
-5.0322 15.0506 34.363503 0.0
12.687936 1.905793 46.082005 2.0
-4.63265 13.98605 33.765751 0.0
1.69915 13.8705 7.319483 2.0
-0.685217 22.93395 -40.621517 3.0
11.42325 -0.2962 44.326023 2.0
-1.0802 21.537199 -18.512249 1.0
-4.672225 16.0667 34.105099 0.0
-5.079175 21.045876 -11.293076 1.0
-1.295825 18.281801 -9.472475 2.0
0.904483 21.854517 -57.466084 3.0
-6.59135 20.57155 -10.03605 1.0
6.29035 -0.73825 39.290382 2.0
-8.72765 24.15645 4.89965 1.0
-0.903825 17.298651 26.100201 0.0
2.337283 11.959016 14.948117 2.0
4.62915 13.62635 13.51755 2.0
11.78575 0.30645 45.029652 2.0
-10.73775 23.198549 6.87505 1.0
-3.07395 14.885083 27.624949 0.0
2.4776 16.274324 9.126924 2.0
-1.07975 12.51605 17.750301 2.0
1.70575 16.74975 -6.03035 2.0
-1.56515 21.585951 -30.80345 3.0
3.96995 8.9654 22.70875 2.0
12.363 -12.3566 49.418499 2.0
0.86855 21.25165 -52.42915 3.0
5.643583 14.35415 16.36545 2.0
1.91955 12.728184 12.278283 2.0
24.57045 -23.990049 58.01915 2.0
0.0429 20.113701 -1.70795 2.0
0.98645 17.746651 -17.89715 3.0
0.20355 17.928049 1.30925 2.0
-20.275949 25.764549 17.09355 1.0
6.53245 13.20625 20.72875 2.0
-9.5412 23.874249 6.2809 1.0
-6.10675 21.37245 -7.82805 1.0
11.681849 -7.475 46.534248 2.0
-6.90225 13.342209 41.728291 0.0
-0.18095 18.411051 -16.835649 3.0
-1.74169 21.94059 -46.677868 3.0
0.084397 20.436869 -35.296951 3.0
-14.65665 22.92605 7.76255 1.0
-0.47545 20.947599 -44.753899 3.0
1.36045 20.264549 -22.727551 3.0
6.59165 8.10455 30.20635 2.0
-13.314165 22.850309 7.291293 1.0
-8.245899 13.89595 42.879448 0.0
-0.766375 18.941299 0.05615 2.0
0.969617 21.503584 -41.283649 3.0
4.64335 14.34865 12.88315 2.0
-10.693184 19.663717 -3.691317 1.0
0.9427 18.72015 -20.328499 3.0
1.92675 0.522083 36.621517 2.0
22.152885 -16.302299 56.665646 2.0
-22.506516 25.819166 12.754901 1.0
13.507751 -16.05765 52.76585 2.0
11.487931 -13.309952 50.116467 2.0
-1.62065 21.02445 -23.028549 3.0
-1.5569 16.6604 4.7401 2.0
-18.88735 23.92255 6.9154 1.0
-17.873199 24.07765 9.10565 1.0
1.49715 17.06835 19.859749 0.0
-1.5275 20.823551 -34.310349 3.0
1.21195 19.602449 -14.31855 2.0
-12.00685 23.46385 9.58685 1.0
-3.30845 17.258751 32.38625 0.0
0.76875 21.57515 -36.329651 3.0
0.84155 21.491034 -53.700035 3.0
19.3155 -12.2762 56.108551 2.0
-1.92605 15.87085 22.439251 0.0
16.919725 -9.910962 51.898788 2.0
7.700579 -7.501395 45.300564 2.0
-21.30545 25.522465 11.349166 1.0
-1.71585 16.116051 9.69605 2.0
-19.295225 25.260939 16.670624 1.0
-0.00105 20.37545 -4.79645 2.0
11.365461 -1.90615 44.462723 2.0
4.113522 7.892921 26.094522 2.0
-18.03285 18.376751 -1.59605 1.0
-0.09555 1.96885 34.990501 2.0
-1.07775 17.91 -5.0659 2.0
-0.316675 10.4519 21.3249 2.0
-10.80015 22.815849 4.64055 1.0
2.14065 19.293449 -9.05935 2.0
-2.119583 6.030117 30.677786 2.0
-5.79695 20.7139 -10.3028 1.0
2.70525 7.0222 27.959099 2.0
20.93405 -14.65285 56.901649 2.0
-9.05695 23.026051 3.91225 1.0
2.9517 15.860451 2.6956 2.0
-1.2579 20.1633 -28.854675 3.0
-8.284426 12.671775 45.528824 0.0
-17.6558 18.634701 -1.8114 1.0
-1.0468 17.965599 -8.50165 2.0
2.669117 15.32285 4.332016 2.0
22.71015 -18.109509 56.545368 2.0
-3.46615 14.03735 27.63965 0.0
1.088775 18.533325 -17.874674 3.0
-1.86185 15.6847 18.162951 0.0
3.734925 16.0961 6.08235 2.0
-0.5063 21.0602 -40.553047 3.0
7.686443 13.716157 21.493296 2.0
2.30355 12.731791 11.908969 2.0
-1.68455 22.67495 -57.573051 3.0
7.14071 16.48431 17.421169 2.0
-0.40925 5.56025 30.196751 2.0
-0.67335 19.432751 0.04425 2.0
0.25895 20.766951 -16.39905 3.0
-1.71535 14.45245 14.71955 2.0
-8.270083 22.323282 -0.692183 1.0
-3.738325 19.882326 -15.373324 1.0
3.10605 8.308328 25.113451 2.0
0.481383 21.673248 -29.06295 3.0
1.05115 23.679449 -58.67355 3.0
1.489583 19.321783 -11.370017 2.0
2.09555 -3.02705 39.354652 2.0
-1.15359 16.690691 5.08593 2.0
6.720416 -4.74615 42.688999 2.0
-9.443984 19.301451 -5.317517 1.0
14.52725 -17.68825 55.177048 2.0
3.914075 8.702175 23.906376 2.0
8.41045 -2.84315 41.961449 2.0
-0.90393 22.923811 -38.956573 3.0
9.725525 2.0976 40.658875 2.0
3.01455 18.033251 1.14505 2.0
24.840302 -22.692051 58.213451 2.0
0.485917 18.155016 4.628284 2.0
-0.646875 14.5539 9.579624 2.0
1.73465 23.104349 -51.56205 3.0
-0.935117 16.099367 4.286933 2.0
18.103001 -21.626499 56.88485 2.0
2.28625 7.570183 26.355452 2.0
-5.443521 19.29735 -11.499951 1.0
3.60295 14.20435 10.87785 2.0
19.254339 -15.484608 54.117054 2.0
-2.495975 18.901924 -17.501074 1.0
0.7531 20.90885 1.4935 2.0
22.69055 -21.6978 56.888374 2.0
18.25045 -9.26695 54.390652 2.0
-2.142683 15.49175 22.72805 0.0
0.87135 16.980499 20.77635 0.0
6.094517 11.683183 22.665451 2.0
-0.32555 20.59495 -41.187599 3.0
1.10735 11.44585 16.569851 2.0
21.138018 -17.904848 55.629986 2.0
14.563316 -14.344917 51.528286 2.0
-15.90685 23.522949 10.30645 1.0
-0.1412 21.807499 -51.284798 3.0
-14.77845 23.304649 11.31075 1.0
-5.58835 23.74905 -3.32815 1.0
-24.87591 25.454731 11.12663 1.0
-6.10445 18.09165 -10.420401 1.0
-1.0213 16.90715 0.501225 2.0
14.717512 -7.512175 49.272953 2.0
-0.09399 17.669809 8.70015 2.0
-16.924883 20.980183 0.91455 1.0
0.12995 18.412451 -17.367025 3.0
8.52455 -3.78965 42.870152 2.0
-14.709517 21.139999 0.687 1.0
-11.310751 23.545279 9.277079 1.0
-1.156017 16.277449 2.067783 2.0
2.51225 15.55935 2.99545 2.0
17.695351 -19.515841 55.320995 2.0
7.925207 -0.500786 40.065685 2.0
13.122416 -16.846651 53.951614 2.0
1.22175 22.269501 -43.307701 3.0
6.507928 -3.318862 41.264969 2.0
-12.703736 20.047693 -1.925136 1.0
5.24555 17.658249 13.35895 2.0
10.380075 1.063675 42.27055 2.0
-13.24265 24.413349 13.92325 1.0
-1.90025 17.64905 29.770451 0.0
-2.065 21.4662 -36.439552 3.0
4.418733 16.903666 9.9096 2.0
7.729063 15.896386 18.492224 2.0
12.130875 -9.871249 48.046124 2.0
3.13085 18.929249 3.24005 2.0
-18.660839 24.302963 7.828813 1.0
-1.072964 15.896607 6.926879 2.0
0.66175 22.638718 -46.311687 3.0
11.72665 -0.305583 44.90065 2.0
-19.912516 24.949049 11.25705 1.0
-4.51515 24.554001 -3.8948 1.0
20.2421 -21.1026 56.224503 2.0
7.61555 1.79175 37.979851 2.0
-14.08055 22.16675 3.97525 1.0
-19.126949 19.735199 -0.05255 1.0
3.9297 10.52125 19.285851 2.0
8.117133 7.509617 33.922268 2.0
5.68875 -3.45505 41.11697 2.0
-10.73775 15.5156 -7.52945 1.0
-1.03875 22.704285 -58.509415 3.0
-1.468 21.105675 -37.072899 3.0
-0.45865 20.162315 -35.839085 3.0
-19.11985 24.57815 10.35345 1.0
5.52125 5.77125 30.274549 2.0
-1.45265 16.943951 8.80215 2.0
-9.08405 21.418449 -3.01725 1.0
-20.538149 25.49655 14.878118 1.0
2.1082 16.065498 -1.7258 2.0
18.19285 -10.26075 54.471951 2.0
1.42805 19.65905 -10.33565 2.0
4.93305 18.834049 13.52615 2.0
15.27847 -8.08483 49.934734 2.0
0.956325 21.297724 -37.567078 3.0
-1.80525 13.169849 22.30695 0.0
-2.07105 21.00585 -19.89805 1.0
-20.92585 25.23435 11.60965 1.0
-8.54445 21.29845 -2.55765 1.0
9.03215 14.01265 24.401751 2.0
0.31815 22.8195 -41.976601 3.0
7.10275 -0.305067 39.306049 2.0
2.02475 15.68975 0.51445 2.0
14.2801 -11.476851 49.787804 2.0
9.8938 -8.331616 46.475231 2.0
-12.59865 22.14245 5.23015 1.0
-1.6828 14.6646 13.93515 2.0
3.83025 14.62165 10.58665 2.0
6.685809 -7.42787 45.090412 2.0
-1.894583 22.866816 -51.865314 3.0
6.69047 0.49741 38.41317 2.0
-0.6408 14.35005 10.311199 2.0
9.163 4.89135 38.2962 2.0
-1.14385 18.21035 9.81605 2.0
-1.92213 7.31571 28.24227 2.0
-2.959017 14.507884 26.07715 0.0
0.23505 21.986401 -58.387299 3.0
-19.691999 22.238726 3.0624 1.0
-6.11034 13.696419 38.319378 0.0
-1.67235 18.787451 -10.96935 2.0
-1.26025 17.44865 -19.9144 1.0
-1.83615 21.55555 -40.338051 3.0
1.33025 20.666651 -25.01465 3.0
0.80695 13.24955 10.72275 2.0
18.503151 -9.830051 54.46875 2.0
-23.896 26.17255 14.71095 1.0
-20.08165 23.784851 5.821083 1.0
8.80845 11.99145 30.754749 2.0
0.087323 17.488422 25.705402 0.0
-6.82785 20.63805 -9.52085 1.0
10.120517 -4.933983 44.418015 2.0
1.77225 20.20565 -3.17375 2.0
-1.6831 12.287001 19.1299 2.0
-15.0795 20.704876 -0.20975 1.0
0.74915 20.31135 -18.68545 3.0
-1.68115 21.242775 -24.084648 3.0
16.659578 -8.699758 51.920834 2.0
-23.49995 25.831949 13.81625 1.0
-2.816225 14.501 25.053551 0.0
-7.5396 24.318901 3.70835 1.0
0.99375 20.817551 -43.92865 3.0
0.7351 17.197201 -10.0616 2.0
-4.23325 20.454849 -15.07765 1.0
0.96385 21.55975 -30.319302 3.0
1.3214 16.03335 -3.2702 2.0
11.506651 0.496065 44.33094 2.0
-0.1829 21.81225 -50.4977 3.0
-7.865095 13.48106 43.510876 0.0
11.099167 -6.055466 45.568768 2.0
19.466976 -18.88415 55.144424 2.0
1.1232 21.1087 -28.42705 3.0
1.65325 18.215349 -1.60825 2.0
-15.45425 21.94235 2.39625 1.0
11.28477 -5.10292 45.11665 2.0
-1.32035 12.01215 19.434851 2.0
-15.707225 24.265575 14.904876 1.0
0.78405 20.775351 -23.29245 3.0
-2.848316 22.060516 -13.10405 1.0
0.4846 22.7155 -43.486099 3.0
14.100835 -17.492359 54.285034 2.0
1.73245 16.943449 14.300366 2.0
7.125845 8.698661 29.907518 2.0
-2.45055 15.70845 23.926849 0.0
20.259926 -14.312075 55.297852 2.0
0.73255 23.888451 -52.6987 3.0
11.116126 0.899858 43.50732 2.0
-3.51665 8.74635 26.507118 2.0
-5.52225 13.674363 36.834663 0.0
10.502844 -8.88295 46.933563 2.0
-0.92199 21.702372 -50.93763 3.0
-1.264783 18.310217 7.117983 2.0
-20.043016 25.040483 11.851951 1.0
1.18245 6.59315 28.342951 2.0
0.03175 13.03265 17.92235 2.0
2.10375 13.76985 4.93595 2.0
-0.88655 18.532484 -12.930183 2.0
-22.459049 23.42205 6.14875 1.0
0.976317 22.10025 -46.46735 3.0
-1.80745 22.19735 -49.264549 3.0
-1.63855 20.412649 -28.369049 3.0
1.74195 15.86145 -5.47815 2.0
-16.687038 23.907629 9.3051 1.0
-21.139 25.546551 15.7429 1.0
6.82605 9.14015 29.13645 2.0
4.76895 16.668049 11.762525 2.0
-1.6608 22.162651 -50.5658 3.0
6.423383 8.392551 28.65925 2.0
2.2078 18.152201 -5.94815 2.0
-14.70833 24.24931 14.70899 1.0
0.47205 22.348101 -19.16675 3.0
1.302 21.69875 -40.5453 3.0
-1.8886 20.706451 -29.091751 3.0
-15.291451 22.6434 5.4746 1.0
2.45005 15.68015 2.10355 2.0
0.8455 19.0888 -24.95985 3.0
-1.468267 19.106451 -19.932047 1.0
-1.31295 16.902 26.31395 0.0
2.6567 13.66875 6.7922 2.0
-19.263651 23.505251 5.95395 1.0
0.691575 18.275049 -16.472925 3.0
4.06995 17.794649 6.66175 2.0
-18.067974 24.5331 14.703476 1.0
2.3296 1.8883 35.2803 2.0
10.30233 -7.48801 46.058067 2.0
-0.09397 18.147629 3.94779 2.0
1.64685 23.374849 -58.237049 3.0
9.965817 -11.379483 48.51675 2.0
-0.46115 17.665249 7.1142 2.0
-0.083083 3.274317 33.53722 2.0
0.47475 20.323851 -3.96205 2.0
3.103783 -0.511183 37.514484 2.0
6.75355 16.031675 17.2714 2.0
5.01185 15.16755 13.09785 2.0
-0.90225 21.5159 -44.14465 3.0
1.066617 22.082251 -54.887753 3.0
5.937383 14.867517 16.838015 2.0
-1.89973 13.496271 18.293909 2.0
-0.76425 21.20545 -46.78915 3.0
-8.21005 23.221251 0.35565 1.0
8.121429 -0.74233 40.449574 2.0
-1.909617 22.243317 -35.778851 3.0
-2.38545 15.36735 24.47225 0.0
10.480136 6.323207 39.543434 2.0
-0.96575 21.990551 -28.923901 3.0
0.7725 22.284599 -38.072998 3.0
-1.719483 12.826584 23.315882 0.0
-3.562675 16.091749 31.647377 0.0
-8.92365 20.30665 -5.16985 1.0
-0.25535 20.682751 -42.223949 3.0
-2.72515 22.293301 -11.47865 1.0
3.60585 12.66965 14.43585 2.0
-4.10375 21.935249 -10.72485 1.0
-0.468 13.139825 17.565475 2.0
-1.84105 23.00515 -49.419048 3.0
-12.904512 23.089964 8.668988 1.0
-2.02475 12.18975 20.097851 2.0
-4.11825 19.696724 -14.485174 1.0
0.494675 17.225599 16.5179 2.0
6.71485 7.54635 31.27565 2.0
0.682875 18.369076 -17.074249 3.0
6.1045 7.47545 30.08255 2.0
13.683325 -0.91195 48.513439 2.0
9.669249 -12.19175 49.213951 2.0
0.9403 22.357151 -41.521248 3.0
1.33603 17.48049 -11.06197 2.0
10.873751 8.24505 38.337547 2.0
3.2969 12.344151 12.6663 2.0
0.7123 14.26195 7.4246 2.0
7.7213 12.489333 24.311684 2.0
-8.52915 18.993549 -6.39315 1.0
-0.27615 20.742552 -37.683483 3.0
0.077517 14.24845 8.140683 2.0
-0.53815 20.85125 -38.404251 3.0
1.267483 17.320517 -12.559184 2.0
9.19755 -0.38005 41.256351 2.0
0.84565 21.520451 -54.357449 3.0
0.75335 20.87545 -24.43915 3.0
-24.61425 25.97135 14.91445 1.0
-1.67925 20.117626 -25.48085 3.0
-2.06675 15.29735 15.12755 0.0
1.94785 13.09885 10.46875 2.0
2.22105 16.60465 11.82585 2.0
0.86195 19.033051 -23.804951 3.0
3.483283 19.08305 8.131383 2.0
-1.6431 16.32395 16.572201 0.0
2.27995 16.19545 18.856649 2.0
-1.74655 17.48855 -2.56925 2.0
4.29355 -4.474464 41.543591 2.0
-20.67709 25.159058 9.710339 1.0
-7.07325 14.98775 38.929649 0.0
-0.898917 21.746984 -25.948183 3.0
1.1567 19.936951 -11.791349 2.0
-12.3112 22.114773 3.114675 1.0
1.26405 23.64035 -52.866852 3.0
-0.0994 20.52095 -10.5739 2.0
-3.71995 13.94565 29.56035 0.0
-19.512617 24.498528 7.677272 1.0
6.283804 -5.308704 43.07375 2.0
6.98765 10.44865 27.330549 2.0
8.484094 9.915908 33.530834 2.0
-2.719083 21.06205 -17.091749 1.0
12.19465 -0.95335 45.873852 2.0
-4.898575 13.321525 35.785427 0.0
-1.10425 22.718952 -12.7155 1.0
23.252073 -24.330801 58.0882 2.0
1.13775 22.900284 -52.470951 3.0
-1.348817 23.308416 -51.267284 3.0
-1.9135 23.054901 -50.560299 3.0
-1.5137 16.488382 22.316465 0.0
6.46144 12.53253 20.905521 2.0
3.50361 8.93456 23.719891 2.0
-23.69099 25.091671 9.512201 1.0
12.052279 -4.086678 45.720165 2.0
1.22025 23.441351 -50.845551 3.0
7.8506 11.665951 28.702801 2.0
-1.8161 20.623199 -21.711899 1.0
21.047701 -14.125 56.524609 2.0
6.20885 6.93875 31.07865 2.0
7.738792 13.250834 22.492935 2.0
24.1168 -19.688599 57.484829 2.0
-1.89755 20.898149 -31.338949 3.0
-1.51255 19.37005 -14.31805 1.0
1.364683 19.486784 -12.67255 2.0
12.917274 -10.092675 48.468025 2.0
-19.569302 22.0462 3.55565 1.0
-6.66945 13.54245 39.892151 0.0
4.20755 -7.81255 44.593151 2.0
8.073925 10.930524 29.955864 2.0
-2.2116 15.91835 20.9727 0.0
-1.09655 10.09105 22.286249 2.0
3.718116 -3.913873 40.881474 2.0
-8.82315 21.84725 -0.62545 1.0
-1.55925 13.02225 21.64115 0.0
7.88057 -9.66717 47.290768 2.0
19.80595 -13.55805 54.997349 2.0
-1.0703 17.672262 27.707964 0.0
1.07745 11.07985 17.285749 2.0
0.60115 22.04615 -37.202148 3.0
0.34035 20.88245 -39.017948 3.0
-18.472111 24.905569 12.119749 1.0
9.30435 -1.95275 41.70525 2.0
1.22065 22.13225 -49.543049 3.0
-21.295971 23.655991 5.69935 1.0
-12.17445 20.35445 -1.32985 1.0
-1.3843 23.1633 -47.444599 3.0
17.027149 -17.367149 53.776249 2.0
-16.522715 22.895117 5.501284 1.0
-1.12885 16.15905 3.17235 2.0
2.76075 19.145451 3.88805 2.0
-0.54095 20.929001 -39.290951 3.0
-9.73625 22.38895 1.65825 1.0
-3.86435 21.021151 -14.39045 1.0
1.29535 4.2392 32.350052 2.0
10.90942 -9.310014 47.290546 2.0
-6.472917 15.331349 -10.90985 1.0
-1.94935 23.00465 -47.925549 3.0
13.889638 -7.100874 48.334724 2.0
-2.28475 12.72205 19.763849 2.0
-1.05625 19.01635 0.50745 2.0
-9.2693 20.497101 -4.48305 1.0
-19.33135 21.281725 1.90685 1.0
-1.59895 17.44425 -1.35375 2.0
5.5468 10.481951 23.76305 2.0
-1.099883 18.754517 8.306351 2.0
