# .PCD v0.7 - Point Cloud Data file format
VERSION 0.7
FIELDS x y z label
SIZE 4 4 4 4
TYPE F F F U
COUNT 1 1 1 1
WIDTH 1525
HEIGHT 1
VIEWPOINT 0 0 0 1 0 0 0
POINTS 1525
DATA ascii
5.1394 38.337952 -65.040344 1.0
16.29665 -27.296551 66.578247 0.0
8.9929 8.33565 42.94635 0.0
3.0352 34.555351 -8.28535 1.0
0.9539 32.231102 35.911499 3.0
5.90555 26.902418 15.125249 3.0
10.0938 4.46105 48.524399 0.0
15.836666 -33.530251 68.898018 0.0
7.9498 12.28335 37.262051 0.0
7.512534 25.738382 12.122517 0.0
23.90925 -40.101402 67.929977 0.0
5.8127 16.85615 29.87595 0.0
5.5794 30.734699 -8.74345 1.0
8.8437 29.232651 10.98575 0.0
22.916765 -33.705814 68.947014 0.0
11.7854 12.06835 39.82225 0.0
6.2096 29.42205 21.153151 3.0
1.1835 17.287201 34.49155 0.0
-20.28455 40.036625 -11.651925 2.0
8.1812 29.881849 45.187649 3.0
13.884057 -7.319478 60.87624 0.0
4.923 39.084549 -35.794552 1.0
1.3047 31.854483 13.938483 3.0
0.6591 18.44305 30.53405 0.0
16.708481 6.70719 48.457451 0.0
-4.7094 41.618851 -13.95465 2.0
4.7728 35.125549 -41.456249 1.0
1.9961 30.164749 -0.16235 3.0
5.722533 8.150416 46.69302 0.0
2.8462 37.750851 -38.066051 2.0
1.7908 26.79715 15.36255 3.0
3.5407 35.604252 52.904751 3.0
-7.2642 34.206749 -22.75285 2.0
6.0641 29.44585 -0.03715 0.0
4.3188 11.0669 46.175499 0.0
6.2075 31.13435 33.36845 3.0
-0.4026 21.138849 21.27445 0.0
5.74965 34.468849 -27.10285 1.0
0.8949 23.823351 15.67095 0.0
-0.77915 31.744049 44.767502 3.0
5.4212 41.040749 -66.721649 1.0
-0.0925 19.9489 24.343349 0.0
1.6814 32.447651 17.173849 3.0
16.052151 12.46125 41.056602 0.0
10.6678 25.39765 17.71335 0.0
-0.334275 30.902725 29.536726 3.0
4.3333 39.086048 -78.608345 1.0
5.9019 35.534477 54.870098 3.0
-13.461 38.992001 -11.7684 2.0
5.735925 32.671249 -11.1125 1.0
4.8588 32.257652 0.9557 3.0
16.472967 9.705883 43.06712 0.0
0.855 34.21595 55.177952 3.0
-1.48758 39.881111 -22.10593 2.0
-1.7019 38.367085 -24.936281 2.0
-3.3715 41.685349 -16.675249 2.0
5.7237 -10.13235 60.73835 0.0
17.94175 -3.50155 62.172249 0.0
2.6303 39.39185 -61.329651 1.0
3.491867 7.103149 50.712185 0.0
-2.0111 34.239349 -28.41115 2.0
7.5621 31.586651 51.123348 3.0
6.04345 11.026899 41.255203 0.0
4.087333 33.241215 41.929485 3.0
5.5691 33.45245 -21.493549 1.0
4.3547 38.68565 -46.035351 1.0
-4.97255 31.543051 -25.9846 2.0
8.126266 0.844317 53.347782 0.0
6.1416 32.633553 46.439499 3.0
5.3083 42.448952 70.674248 3.0
4.03845 37.074203 58.713501 3.0
4.8536 37.876949 -40.35685 1.0
4.05535 35.9333 -47.2486 1.0
7.5521 33.107948 54.7267 3.0
14.3098 7.5109 46.3554 0.0
14.88135 -11.954451 63.182747 0.0
5.1427 31.340349 12.66895 3.0
2.5297 39.425251 -70.764153 1.0
3.666 19.0809 25.045349 0.0
1.1515 31.60515 3.94705 3.0
2.931067 27.772818 1.362283 0.0
1.8854 35.049583 58.52335 3.0
3.09605 36.056099 -29.5406 1.0
5.27215 15.3389 33.282951 0.0
4.9072 25.76195 3.83335 0.0
8.2914 -14.320717 62.941616 0.0
3.2433 35.041149 -14.71845 1.0
6.2169 33.200748 49.220551 3.0
6.16125 29.73695 23.9594 3.0
2.7073 30.95945 -11.07515 1.0
1.8886 27.45635 11.6846 3.0
11.313067 -8.095284 60.039982 0.0
1.3566 34.01395 48.996651 3.0
4.7177 25.96965 12.27965 0.0
-14.0568 37.144798 -16.931 2.0
2.9098 23.907749 13.55335 0.0
-0.7208 27.353649 25.321449 3.0
2.9019 33.982948 -24.78565 1.0
6.0023 24.518551 9.18415 0.0
4.1259 -0.89035 56.5821 0.0
10.896151 10.11765 41.6553 0.0
6.3577 21.42815 16.146851 0.0
8.0011 15.02435 30.707951 0.0
4.0732 39.69685 68.592552 3.0
5.1802 39.833248 65.971947 3.0
1.4176 29.252951 6.06735 3.0
4.2492 33.634651 44.713848 3.0
12.36375 -13.144501 62.478447 0.0
5.530633 32.65535 -13.845616 1.0
-16.920134 40.826153 -2.909383 2.0
4.5016 39.846649 -56.131851 1.0
1.531925 37.692402 -32.691574 2.0
1.8733 32.674252 -6.39085 1.0
-5.9844 36.509651 -22.104151 2.0
7.89885 21.254313 20.899025 0.0
3.5926 32.78075 8.36095 3.0
-11.34805 39.373901 -7.25595 2.0
10.298772 -4.083621 57.477383 0.0
8.678776 30.252399 42.565277 3.0
5.7939 29.869749 -3.18195 0.0
4.5292 31.903851 27.773201 3.0
-19.247799 37.102448 -16.44635 2.0
2.29745 32.181374 21.924999 3.0
2.9394 30.19805 -8.53905 0.0
-16.8111 40.35775 -8.06115 2.0
-14.50665 35.3815 -18.95075 2.0
4.141 39.297249 -50.319603 1.0
7.11038 -7.129911 59.248772 0.0
-8.3492 39.321648 -10.8558 2.0
1.6779 34.4911 -34.696053 2.0
3.9574 26.934151 8.38055 3.0
5.2502 39.22065 -58.84465 1.0
3.9883 32.376949 32.659248 3.0
6.8599 26.8885 20.627251 3.0
6.239067 31.486084 37.086884 3.0
-23.85 41.476151 -6.69875 2.0
4.31305 34.716599 50.486549 3.0
5.1377 34.06155 -32.816448 1.0
7.00785 29.670849 29.26475 3.0
-0.9044 31.387751 39.331348 3.0
14.936833 -17.687416 64.422386 0.0
7.71458 19.11661 24.711529 0.0
1.0195 33.71035 46.416149 3.0
14.6617 5.41165 50.54575 0.0
6.0926 30.145651 14.82765 3.0
-6.5935 39.69875 -13.40175 2.0
11.112133 6.366316 46.563019 0.0
-3.86864 36.69521 -25.098009 2.0
6.0404 -2.97295 57.122051 0.0
10.114244 22.663792 21.684809 0.0
8.3134 27.94075 33.981949 3.0
-10.07695 35.363251 -20.31575 2.0
12.91 15.37555 37.444752 0.0
1.0784 31.707075 9.712175 3.0
5.0416 20.63335 20.73015 0.0
3.108 38.89225 -43.782848 1.0
4.3625 34.841251 -36.039749 1.0
17.116766 -23.249117 66.064682 0.0
9.309814 -0.866629 54.867947 0.0
3.45 31.11425 -13.52285 1.0
2.2661 39.006248 -65.50985 1.0
2.933667 35.67115 -39.660751 1.0
15.927617 -6.67905 62.263515 0.0
1.666 32.155949 1.51315 3.0
14.294866 8.98825 44.163219 0.0
5.27075 -5.2402 58.849197 0.0
4.437067 12.873584 42.324574 0.0
3.499733 32.917484 38.102551 3.0
9.6116 -17.323351 64.37645 0.0
3.3716 15.15175 38.906551 0.0
13.7348 -26.56595 66.45575 0.0
21.1429 -30.957951 68.193047 0.0
3.679533 33.881683 -28.414118 1.0
1.9665 32.576851 -3.01615 3.0
20.333868 -24.461115 69.058556 0.0
9.702225 -6.459775 58.861176 0.0
18.602301 -11.70185 66.765846 0.0
-6.7328 37.954151 -17.79775 2.0
6.4422 36.464851 58.189949 3.0
0.36015 32.626503 41.707748 3.0
-0.9343 37.425583 -29.081551 2.0
2.6489 32.458752 29.38475 3.0
-0.4323 28.50205 20.093416 3.0
3.4729 37.626049 -59.557152 1.0
3.5835 36.969849 -54.66555 1.0
10.6257 21.548149 25.20365 0.0
5.1742 0.71815 54.7062 0.0
2.0931 39.03595 -26.253851 2.0
3.3252 32.105698 -17.4879 1.0
13.910749 -3.92615 58.910599 0.0
7.087933 3.51775 51.112686 0.0
9.11055 13.68735 35.413002 0.0
8.8415 27.65135 12.95105 0.0
9.8064 23.678749 24.081949 0.0
4.7151 32.945297 -3.45515 3.0
17.88665 -31.0851 67.357147 0.0
4.7899 31.482651 17.75835 3.0
3.4782 38.094051 -63.24855 1.0
4.8603 32.19075 3.63235 3.0
6.2502 28.541517 2.539617 0.0
-0.9158 28.014351 28.476151 3.0
6.2309 22.216049 13.70715 0.0
5.58735 34.112648 -19.1299 1.0
3.2944 16.100349 34.81435 0.0
8.720367 17.862183 28.263315 0.0
-9.89055 31.737425 -23.737175 2.0
21.4207 -28.556116 69.362587 0.0
13.92175 13.189751 40.046749 0.0
10.1965 -23.832649 66.156052 0.0
5.067167 42.477352 -76.684814 1.0
7.443 31.012951 5.10955 0.0
3.13605 39.707298 -75.305145 1.0
-18.1675 39.209301 -12.45635 2.0
18.345551 -18.515699 66.98175 0.0
2.982 38.321449 -34.510349 2.0
3.50175 3.24335 53.962051 0.0
-3.52435 33.31065 -26.721384 2.0
19.683199 -20.099783 68.73304 0.0
-12.3426 34.59285 -20.44685 2.0
7.1628 31.150415 40.940914 3.0
0.1394 34.020351 -31.730249 2.0
11.13775 17.64835 32.330704 0.0
5.550333 40.698616 -72.336449 1.0
7.313534 28.294151 25.612051 3.0
11.67055 3.75575 50.163551 0.0
7.8116 -11.18485 61.19725 0.0
-15.500567 40.333649 -5.335783 2.0
5.5632 29.70175 7.68415 3.0
15.49055 4.3709 52.665298 0.0
3.8198 39.79995 -52.613449 1.0
-11.289225 38.5093 -12.572925 2.0
15.243299 0.493636 57.369144 0.0
2.9885 33.476551 6.18675 3.0
20.247683 -26.706152 68.279747 0.0
4.7206 4.55065 51.827351 0.0
3.296133 36.767246 -49.341518 1.0
-11.2449 37.060551 -16.362551 2.0
3.6756 28.81465 -4.61875 0.0
8.3961 -3.00575 56.611252 0.0
13.108549 -0.628288 55.900223 0.0
0.5109 28.56675 13.40735 3.0
4.9578 7.322916 48.754002 0.0
10.501801 19.243917 28.919617 0.0
19.0541 -38.064651 69.014153 0.0
3.8554 40.907452 73.539352 3.0
2.0044 22.68585 17.39185 0.0
4.2108 33.648651 -6.39385 3.0
-13.315933 39.278 -9.451817 2.0
7.677714 8.035893 44.85601 0.0
10.742932 -10.185384 60.909946 0.0
17.87615 -34.372799 67.949699 0.0
-12.4967 32.76355 -22.066799 2.0
12.891033 -16.815416 63.717117 0.0
-0.52135 38.296303 -26.946751 2.0
5.283 39.874649 -63.29475 1.0
21.8918 -41.657051 68.091003 0.0
17.6311 -14.67495 66.166351 0.0
7.8825 5.07545 48.789749 0.0
12.4539 16.932751 35.303848 0.0
9.856051 11.9007 38.572998 0.0
3.2756 32.838249 13.27095 3.0
5.7956 13.03095 37.533249 0.0
8.73625 29.1534 37.749649 3.0
-12.0318 40.54525 -3.45215 2.0
4.8914 36.522251 -50.954552 1.0
15.703567 -2.33685 59.746113 0.0
22.28685 -38.49865 67.901443 0.0
-0.920233 29.49025 24.489817 3.0
6.30945 38.566975 62.502026 3.0
2.70845 38.080151 -56.472099 1.0
6.5191 26.95615 6.98065 0.0
5.7278 34.824249 -10.41775 1.0
19.2442 -22.809151 67.805649 0.0
4.3496 37.67395 60.96505 3.0
-15.0749 40.845398 -1.3149 2.0
3.29265 35.469353 -21.736198 1.0
6.2149 40.557751 -76.38755 1.0
4.1037 35.718151 -43.57085 1.0
-0.1788 32.915352 50.217751 3.0
4.3371 36.502502 -31.916349 1.0
9.2034 15.59255 32.590649 0.0
-0.4902 30.222851 21.906651 3.0
9.86722 7.17993 44.884514 0.0
4.2288 42.421349 76.532547 3.0
7.0924 32.092251 0.87765 0.0
16.939026 -10.509925 64.661644 0.0
3.0948 36.879848 64.526253 3.0
5.662128 39.705147 -70.330376 1.0
9.103433 25.341433 16.132616 0.0
2.500133 32.637348 34.280983 3.0
14.11505 -22.339724 65.134506 0.0
16.8638 -19.64995 65.730354 0.0
-22.2153 42.157051 -3.98045 2.0
-7.7296 38.554249 -15.17465 2.0
11.72694 2.06109 52.142212 0.0
2.2025 32.196751 19.30205 3.0
0.7944 29.54645 9.12755 3.0
4.4743 40.47485 -60.801449 1.0
0.2977 31.23815 26.19315 3.0
-0.3375 31.12335 31.713949 3.0
0.88975 37.914452 -30.53985 2.0
0.4162 31.039551 -5.05515 0.0
7.5224 23.098301 16.92605 0.0
-19.726967 41.721485 -4.50695 2.0
8.373966 27.699316 29.646818 3.0
4.7998 36.095749 -17.63105 1.0
18.710751 -16.367851 67.501251 0.0
2.3571 30.515751 -3.62295 0.0
4.737 37.120651 -36.697948 1.0
-9.704375 36.481224 -18.458349 2.0
4.894 21.786551 17.745251 0.0
8.0184 -18.68605 64.92765 0.0
3.5749 41.951649 -75.061951 1.0
-4.332325 40.064804 -17.736475 2.0
1.358 21.98535 20.08625 0.0
12.3312 -3.25135 57.598251 0.0
0.2273 30.79505 17.637051 3.0
18.481449 -27.295849 66.988251 0.0
-6.47095 32.885948 -24.25585 2.0
4.499167 32.704685 -1.330583 3.0
7.68158 9.69619 41.943169 0.0
3.2886 17.45435 29.733351 0.0
-12.718135 39.709629 -5.652 2.0
5.7436 38.30695 -55.231049 1.0
4.0922 32.492348 -22.892899 1.0
6.6807 6.55515 47.734249 0.0
4.8607 11.39995 43.802849 0.0
8.2045 36.691849 59.362251 3.0
3.6706 38.935852 -68.847748 1.0
17.527275 -8.1269 64.435898 0.0
12.7292 -24.248299 65.711395 0.0
5.43618 27.53191 -1.06479 0.0
1.6533 19.51005 25.57605 0.0
-0.08025 28.48525 17.782749 3.0
8.445857 25.871138 14.12202 0.0
2.3245 35.7491 -36.564499 1.0
-18.952099 41.50745 -0.91005 2.0
7.3707 30.76165 38.723949 3.0
-3.28895 39.306599 -21.158333 2.0
5.25345 31.054649 22.094601 3.0
-10.4944 38.151585 -14.693383 2.0
3.4357 32.496201 -19.560551 1.0
15.82215 2.5428 55.906998 0.0
4.45 38.902851 -48.218948 1.0
-14.7593 37.985352 -15.05445 2.0
5.44785 32.092499 -17.034023 1.0
4.731975 35.725948 -25.64085 1.0
2.1808 26.468451 7.35905 0.0
5.9134 37.515949 -46.972851 1.0
4.659 36.047901 -27.944 1.0
6.6178 33.416649 -4.19255 0.0
5.3072 27.732849 -3.88955 0.0
7.7279 16.129499 28.87645 0.0
13.3735 2.23855 53.477551 0.0
2.68595 39.511497 -29.901951 2.0
6.2428 11.76835 39.218048 0.0
-1.3852 28.73875 32.94635 3.0
5.26135 35.513153 -14.9105 1.0
4.0361 33.176449 -26.33135 1.0
5.62215 30.47905 19.4025 3.0
17.28545 -29.12685 67.010803 0.0
16.745434 -25.276117 66.309517 0.0
0.28965 29.498001 0.92105 0.0
5.6636 18.75425 25.49015 0.0
1.1993 31.80695 11.86075 3.0
2.297967 33.250351 40.857784 3.0
16.534149 0.54535 59.003799 0.0
-18.503633 40.302216 -10.493649 2.0
2.3082 33.091999 -9.897249 1.0
5.11 36.322151 56.61845 3.0
12.4395 13.57135 38.56675 0.0
3.2441 41.152248 -69.818649 1.0
1.1104 17.651617 32.461254 0.0
0.595 31.965349 33.866451 3.0
-0.4703 31.57785 37.30685 3.0
6.6484 31.623051 28.028749 3.0
12.7733 20.42975 32.470852 0.0
1.8465 29.198351 -2.13855 0.0
-15.5011 39.209049 -12.63245 2.0
4.0587 42.329529 -78.462082 1.0
-16.48962 34.872032 -18.903971 2.0
6.65812 24.06613 12.93603 0.0
3.1549 33.661152 1.23765 3.0
5.6475 28.93025 10.18735 3.0
14.6861 -28.691849 67.06385 0.0
2.15475 27.5637 3.2412 0.0
12.07195 9.35665 43.179001 0.0
0.4075 26.46785 10.69205 0.0
11.559999 15.210751 35.933151 0.0
4.1754 38.86945 -73.722954 1.0
-21.690948 41.253651 -7.90105 2.0
1.3618 33.029251 -13.46805 1.0
2.35048 38.286751 -45.926689 1.0
3.9213 38.713852 -66.631752 1.0
4.2492 29.357849 -9.82825 0.0
1.69135 18.48745 28.550652 0.0
0.6056 35.75745 -32.912552 2.0
6.32135 -14.70495 62.730801 0.0
-1.257 29.24065 35.160049 3.0
12.728701 -20.445301 64.729698 0.0
21.170401 -34.243149 68.008553 0.0
3.5825 40.993351 -65.917053 1.0
2.1216 32.319351 24.783449 3.0
13.956467 -30.112749 68.658081 0.0
4.8554 31.297871 25.69187 3.0
4.9822 35.870449 -45.359951 1.0
1.6842 34.932091 53.508003 3.0
2.1032 29.645651 1.81095 3.0
7.887 29.185049 9.02975 0.0
4.5396 38.201649 -42.57885 1.0
-18.4361 37.97905 -14.83515 2.0
6.8595 19.557899 20.874201 0.0
16.2356 -14.87775 64.764351 0.0
6.380066 27.295282 17.015617 3.0
2.4091 27.613449 9.77815 3.0
6.6013 30.21785 31.322651 3.0
6.559833 27.899683 18.952316 3.0
3.3186 15.532917 36.924751 0.0
-3.2981 35.26535 -26.516201 2.0
14.33625 -8.947 61.90015 0.0
-8.2972 35.00045 -21.26865 2.0
5.5934 38.344849 -51.251251 1.0
0.8851 31.6975 28.12995 3.0
7.5361 32.553398 52.839249 3.0
3.8333 41.828751 -71.921654 1.0
3.0878 35.33485 -16.816549 1.0
-0.8681 34.275951 -30.045349 2.0
13.9235 -5.5334 60.029499 0.0
4.5141 31.80785 -21.065451 1.0
0.74415 31.31535 15.75025 3.0
22.533249 -35.758804 68.243576 0.0
6.2593 39.288101 -66.507095 1.0
11.82415 23.728399 22.324726 0.0
7.9985 27.472549 10.96085 0.0
3.5156 24.379351 11.75845 0.0
5.3666 30.75285 -13.37015 1.0
3.52705 34.280502 -30.519749 1.0
3.934 34.158451 -10.05465 1.0
5.55485 40.701752 -68.661201 1.0
-15.1959 40.010151 -9.09065 2.0
7.5382 29.66375 33.539982 3.0
4.537734 42.482113 72.51545 3.0
2.921556 34.927685 -19.899218 1.0
14.9294 -31.759552 68.925652 0.0
-9.7255 39.355 -8.30275 2.0
-5.9269 37.380451 -20.383551 2.0
5.63505 30.319901 -6.8612 0.0
16.060101 -21.698601 65.493599 0.0
5.6462 17.70715 27.820551 0.0
8.746799 3.7661 49.895599 0.0
10.7156 -20.264601 65.041153 0.0
0.0294 26.880449 21.22695 3.0
6.0357 32.17445 -7.20455 0.0
5.6808 34.32325 -24.49305 1.0
3.4017 34.931351 -37.961449 1.0
5.7322 32.155548 41.758652 3.0
-19.704849 41.5014 -6.9264 2.0
6.8933 40.591049 66.315247 3.0
2.90862 33.887428 46.28957 3.0
1.1963 31.111549 -7.23575 0.0
6.1702 33.88905 -5.97875 0.0
3.6293 29.440849 -6.93835 0.0
7.2947 31.55975 45.250648 3.0
-8.305357 32.744724 -23.36722 2.0
5.876934 31.502752 35.225483 3.0
2.9275 34.118351 -2.47375 3.0
0.26 30.002951 -1.01945 0.0
-5.1037 37.04715 -23.69375 2.0
2.087 37.845348 -53.239449 1.0
-20.706699 40.699303 -9.920549 2.0
-22.302999 40.597752 -11.44405 2.0
2.4717 36.48315 -42.770649 1.0
3.91885 34.443352 -12.94745 1.0
5.903884 39.901718 -74.150131 1.0
-9.29545 40.147598 -6.4823 2.0
7.2542 28.677549 6.78205 0.0
4.2574 25.008249 8.68245 0.0
16.89253 -5.06586 62.285511 0.0
14.924 3.2501 54.06345 0.0
1.6874 31.724951 -1.3291 3.0
7.28712 22.104891 18.499889 0.0
4.041683 38.560402 65.068672 3.0
2.35795 32.313499 15.432051 3.0
11.466267 20.879473 28.925364 0.0
7.4342 28.84675 27.511551 3.0
-16.529833 37.309582 -15.658649 2.0
2.46215 34.572449 50.68935 3.0
10.317821 24.250851 19.306971 0.0
3.4578 34.882999 -34.289001 1.0
-7.3195 41.084251 -9.50475 2.0
2.544 28.43095 -0.58205 0.0
7.64 26.539049 24.994249 3.0
-18.6017 41.626751 -2.98925 2.0
14.866699 6.3278 48.752197 0.0
12.81045 -15.022449 63.23045 0.0
3.5578 36.79105 -52.812851 1.0
2.1372 38.546551 -49.883751 1.0
3.5184 11.23855 47.844254 0.0
2.9502 35.554749 -23.80195 1.0
2.7178 21.02405 20.90225 0.0
5.1416 35.246052 -21.313749 1.0
1.6419 26.961849 13.45265 3.0
4.7713 37.786152 -38.425949 1.0
10.106233 -21.900215 65.899147 0.0
-3.4453 40.117352 -19.35915 2.0
4.6523 39.402851 -54.219151 1.0
7.5887 20.20075 22.446051 0.0
4.7627 41.232449 69.349251 3.0
3.076229 36.710064 62.668449 3.0
1.642467 34.950516 56.675018 3.0
3.8214 32.500549 30.82695 3.0
5.9335 32.51022 -9.090683 1.0
4.0144 39.595951 -33.677448 2.0
4.094 26.840651 2.43755 0.0
2.7787 37.644749 -36.204651 2.0
1.873 29.136351 4.29285 3.0
-0.726233 31.131117 35.481815 3.0
11.84272 22.71949 25.91239 0.0
6.900675 25.721249 10.329175 0.0
5.4724 36.717251 -42.025951 1.0
4.520783 9.52245 47.131634 0.0
9.289675 20.284649 25.071575 0.0
0.345367 30.293716 14.292417 3.0
7.8932 38.168251 61.689651 3.0
5.9081 26.261683 5.27315 0.0
5.2259 40.236851 -65.096848 1.0
10.9112 18.61565 30.80205 0.0
5.309 30.772751 4.81665 3.0
18.855301 -36.053799 68.004601 0.0
5.6606 29.962051 -5.060817 0.0
6.687187 -8.689762 60.083488 0.0
7.68548 -12.849031 62.064808 0.0
-21.4104 39.79015 -13.05665 2.0
10.102449 -13.975451 62.519951 0.0
0.9975 32.445148 -10.97395 0.0
3.591 31.50115 -15.80335 1.0
10.925 21.097107 27.110464 0.0
-0.0735 39.05835 -25.369699 2.0
4.5038 31.950699 10.94655 3.0
15.699157 10.924006 41.938808 0.0
4.9803 27.09095 10.88745 3.0
8.379167 18.654182 26.463615 0.0
12.688334 0.51095 54.460583 0.0
0.9303 27.09635 16.920017 3.0
16.454552 -32.235703 67.805405 0.0
4.098033 36.057034 54.708096 3.0
-4.56185 40.693699 -15.49205 2.0
13.3903 18.60055 35.408249 0.0
0.744667 20.62805 22.893951 0.0
-5.78725 35.131599 -23.24255 2.0
3.7 25.964251 6.25715 0.0
12.8067 -8.82505 60.782249 0.0
14.481251 16.4681 38.088699 0.0
4.56445 24.280951 10.30755 0.0
-1.51898 32.521309 -28.552969 2.0
4.0134 12.88515 46.15855 0.0
4.92935 16.1632 31.731251 0.0
5.945334 28.494019 14.154182 3.0
3.8728 39.25325 -76.871597 1.0
9.0533 -15.79305 63.610748 0.0
15.5618 -13.40575 64.005951 0.0
13.510401 -18.758101 64.316696 0.0
2.2093 32.75695 -8.14755 1.0
5.2246 9.6362 45.468849 0.0
5.460529 30.89802 -10.514292 1.0
4.174 27.265949 0.16495 0.0
4.1073 19.748951 23.17445 0.0
2.1345 28.340151 7.41625 3.0
3.05415 38.1614 -39.888351 1.0
4.9429 23.42955 13.52315 0.0
3.7444 32.956951 39.858982 3.0
3.45905 37.8298 -61.466148 1.0
2.54445 32.790298 36.617249 3.0
1.9363 25.154551 11.56305 0.0
2.0665 31.683649 -12.56055 1.0
4.4734 14.41745 37.718048 0.0
17.156101 -2.4711 60.935551 0.0
11.69435 -11.53385 61.76965 0.0
6.0891 30.141251 11.39005 3.0
10.680134 22.347685 23.325249 0.0
4.0049 14.02825 40.997749 0.0
-9.920899 38.765099 -11.491776 2.0
3.46755 32.4226 17.070499 3.0
2.2255 32.796452 4.67185 3.0
4.9695 31.547716 8.123417 3.0
-1.47995 35.719898 -29.25795 2.0
4.8375 36.056351 -29.93405 1.0
10.1359 1.3824 52.421303 0.0
16.8778 5.24815 53.276249 0.0
3.5459 36.96125 -33.562351 1.0
-2.2526 38.857849 -23.34935 2.0
16.092112 7.3719 46.962002 0.0
1.3779 32.742149 -35.003551 2.0
5.3884 36.146252 -40.180351 1.0
5.5155 30.662399 16.390949 3.0
3.2825 40.75975 -62.193352 1.0
24.029598 -35.0443 68.8535 0.0
4.8925 37.542648 -58.538849 1.0
6.817033 28.65415 22.671751 3.0
5.762967 39.837482 -77.904381 1.0
1.085467 31.914148 29.914316 3.0
5.49545 39.257099 64.362854 3.0
3.626 14.72455 43.183552 0.0
2.1816 33.81805 -16.532749 1.0
-0.0176 24.56535 14.37385 0.0
10.280225 10.970174 40.132927 0.0
3.191 39.376751 -72.389351 1.0
5.2511 33.15155 -28.42185 1.0
14.0697 -13.71075 62.97665 0.0
6.494237 31.104286 -0.488712 0.0
-13.923134 38.708149 -13.405784 2.0
0.4617 32.935501 44.861149 3.0
7.2462 2.16705 52.181049 0.0
2.76735 36.304802 59.5779 3.0
4.7118 33.723785 46.469555 3.0
6.0985 14.45655 34.828449 0.0
2.8001 34.254051 -26.831551 1.0
6.23755 31.4849 -3.54445 0.0
6.8882 29.463551 4.12035 0.0
5.258 35.233452 53.312649 3.0
9.70108 5.52091 47.135071 0.0
11.8703 -27.28825 67.601151 0.0
13.1475 11.78745 40.81805 0.0
5.1466 29.124901 -8.36695 0.0
10.9844 -1.00535 54.43095 0.0
8.2059 11.43855 38.72345 0.0
2.9605 8.65935 50.256851 0.0
22.13135 -32.055603 69.045349 0.0
-0.2004 23.38195 16.989651 0.0
4.3128 27.47085 6.76865 0.0
13.093 4.68485 50.042049 0.0
0.6919 31.441151 21.77235 3.0
3.914225 32.862499 4.877575 3.0
4.482 33.675598 -8.45545 1.0
9.3291 9.50535 41.400749 0.0
-19.715967 39.312248 -13.24825 2.0
3.155333 40.303753 -78.482811 1.0
6.49315 1.231 53.767899 0.0
2.64975 36.870399 -47.078949 1.0
5.760975 26.892275 2.897775 0.0
12.5067 7.281316 46.144482 0.0
0.49815 28.109699 15.041901 3.0
3.1231 35.72345 -41.345978 1.0
5.0175 34.248852 -34.49765 1.0
2.8008 39.77285 -56.429852 1.0
-1.25115 29.50705 29.2453 3.0
14.896199 -10.327189 62.719147 0.0
5.7962 38.489651 -57.368752 1.0
-0.490775 31.947498 43.113876 3.0
4.09435 34.980949 -18.6854 1.0
6.715433 33.028385 50.912552 3.0
8.8423 24.147211 17.291731 0.0
6.5947 34.365849 53.854149 3.0
6.5454 22.873682 15.274783 0.0
-4.574867 38.122814 -21.046915 2.0
4.1287 40.9193 -67.787453 1.0
2.023 31.51775 -5.06965 3.0
12.6069 -6.85185 59.79385 0.0
1.86085 16.659599 35.889648 0.0
2.6026 23.41375 15.12415 0.0
5.0393 33.028851 43.368752 3.0
5.704733 33.711651 -12.452717 1.0
15.6878 13.85025 40.199451 0.0
13.47595 -11.937201 62.159 0.0
10.68644 8.523551 43.725029 0.0
5.7573 25.758051 16.335251 0.0
-15.29035 36.374199 -17.85725 2.0
6.3435 24.478649 11.29895 0.0
11.164 -16.97485 63.86375 0.0
16.084234 8.750083 44.37965 0.0
6.08665 28.6959 15.98705 3.0
15.64645 -0.87775 58.939003 0.0
5.29 25.97945 13.84635 0.0
6.658867 35.525982 56.383045 3.0
1.9113 32.406849 8.44965 3.0
11.519325 5.2845 48.267876 0.0
16.11665 5.9867 49.973202 0.0
3.5242 32.469749 25.668949 3.0
1.0519 30.80275 5.58025 3.0
1.5485 26.39045 9.04795 0.0
0.50585 33.770752 53.329948 3.0
9.1593 14.61225 34.031849 0.0
3.943667 32.080318 22.133215 3.0
6.30485 25.8944 8.2394 0.0
2.4928 16.79615 33.360851 0.0
3.3371 37.53125 -57.905949 1.0
-18.135201 40.840649 -7.05855 2.0
-5.57505 40.94725 -12.710899 2.0
-1.2963 41.086048 -20.871149 2.0
24.238749 -38.492851 68.355804 0.0
0.3206 37.005749 -33.993351 2.0
5.3185 31.49445 32.019951 3.0
-8.1032 37.19355 -18.38405 2.0
16.3778 -35.11095 68.786652 0.0
3.1711 38.669449 -41.649849 1.0
2.0574 17.61615 30.838751 0.0
4.9741 32.13385 37.942051 3.0
5.5834 32.97575 -15.46405 1.0
5.72515 29.89325 13.215401 3.0
11.7859 17.415449 33.82885 0.0
-14.6515 39.354149 -10.50095 2.0
4.695 38.363602 -44.288452 1.0
2.94965 33.716751 -23.03705 1.0
9.506409 12.847983 36.925476 0.0
2.6462 39.16695 -51.652649 1.0
5.745025 29.112001 -1.7261 0.0
8.699801 -7.69293 59.477028 0.0
3.1138 40.306549 -59.869549 1.0
7.51065 8.9726 43.440552 0.0
23.555315 -41.719833 67.757027 0.0
-0.5824 39.27285 -23.830151 2.0
2.2993 18.85495 26.928249 0.0
0.9366 34.092751 -33.294449 2.0
6.5824 30.467051 1.12715 0.0
8.95738 22.471752 20.353271 0.0
11.824575 19.155674 32.097401 0.0
20.303366 -37.910549 67.976189 0.0
19.501799 -30.923149 67.513847 0.0
7.5321 13.69865 35.00565 0.0
4.09925 39.041149 -70.54985 1.0
7.975067 30.298651 46.749187 3.0
-0.45835 30.642099 27.85705 3.0
5.7337 35.761349 -31.52565 1.0
-1.21695 29.93195 30.826752 3.0
4.911 31.935049 33.934551 3.0
1.3296 27.632599 6.1471 0.0
5.849875 32.848351 44.856827 3.0
7.673934 30.89505 43.820316 3.0
5.2705 34.138149 -22.93755 1.0
-11.13175 32.348297 -22.8659 2.0
-7.8114 39.364948 -12.38175 2.0
4.2944 41.93185 -73.509949 1.0
-2.4475 37.323299 -25.9608 2.0
7.1609 15.20435 32.07835 0.0
9.67385 -19.0443 64.852707 0.0
5.0187 40.392151 67.477699 3.0
13.10996 -1.90685 57.120373 0.0
-8.487633 39.687481 -9.281584 2.0
4.8876 -8.87525 60.178596 0.0
-23.112103 41.963749 -5.301964 2.0
14.979381 -6.13457 61.081848 0.0
2.11115 35.2342 55.1562 3.0
1.91705 30.903076 -9.678625 0.0
9.687101 -2.11239 55.90213 0.0
5.83805 28.117001 0.8219 0.0
3.70374 32.28281 18.73093 3.0
4.1613 40.17865 -57.728649 1.0
-0.27175 32.526249 46.324699 3.0
2.6302 40.838249 -71.500351 1.0
2.68505 39.287201 -63.980553 1.0
4.125 32.740349 2.28855 3.0
5.3034 38.279602 -63.351101 1.0
3.9414 16.19165 33.060051 0.0
0.81715 30.699451 7.9956 3.0
2.6285 16.105551 39.94305 0.0
7.2541 10.9086 40.227547 0.0
3.13145 34.390251 49.239601 3.0
4.47455 5.8592 50.841652 0.0
-0.8449 27.76055 26.853649 3.0
4.6559 2.116017 54.020218 0.0
-5.482225 38.924927 -17.946325 2.0
1.752833 20.03685 24.080017 0.0
1.091033 32.468815 37.476482 3.0
6.8651 32.34885 47.824997 3.0
17.976299 -13.14765 66.432854 0.0
4.110134 39.076 67.06662 3.0
10.5329 26.43055 16.51445 0.0
5.69855 33.486649 47.701698 3.0
3.28705 33.357903 43.29385 3.0
10.202 3.14275 49.811852 0.0
5.56325 37.681198 -45.438103 1.0
-16.476833 40.703083 -6.525417 2.0
2.90895 36.316277 -31.26125 2.0
-12.08785 38.907303 -10.9886 2.0
0.09095 19.498051 25.9046 0.0
7.0714 7.43045 46.291451 0.0
7.492741 -0.07795 54.522449 0.0
2.5652 34.071751 -13.66855 1.0
5.3758 32.697952 -20.08815 1.0
2.12095 38.735947 -31.1544 2.0
-8.741299 33.832901 -22.31385 2.0
16.533501 -18.240549 65.114151 0.0
13.673233 14.561717 38.773952 0.0
8.86425 28.68045 35.7094 3.0
-3.087367 37.712551 -24.137884 2.0
10.3185 14.65885 35.086449 0.0
4.7754 21.282551 19.25605 0.0
8.2034 -1.69135 55.625648 0.0
7.5173 30.89045 49.72205 3.0
4.5636 41.541851 74.914398 3.0
-12.7476 37.39695 -16.088051 2.0
3.0393 36.354252 57.75005 3.0
19.4839 -34.48325 67.733154 0.0
9.233 -10.56715 61.00695 0.0
-13.5107 36.37215 -18.17115 2.0
4.9072 34.03035 -14.23005 1.0
-0.6906 31.69725 40.842476 3.0
1.367167 30.751783 2.622283 3.0
5.74945 27.334751 13.1354 3.0
-11.920133 39.211819 -8.693217 2.0
14.9488 9.99865 42.966351 0.0
-6.4347 30.93755 -25.65485 2.0
15.537001 -16.253101 64.417351 0.0
5.37035 -11.624901 61.091751 0.0
1.5815 37.034649 -37.021252 2.0
5.0004 34.226551 48.931751 3.0
3.5091 26.747002 3.8701 0.0
1.106 28.40645 10.74395 3.0
6.9136 25.939051 21.849951 3.0
9.6176 0.40045 53.631451 0.0
1.9478 32.595951 3.02625 3.0
3.924866 -4.483817 58.929749 0.0
3.5014 38.302948 -64.905594 1.0
7.6002 30.23415 37.217449 3.0
5.7743 35.31715 -28.71995 1.0
9.069134 21.507818 21.912851 0.0
0.4679 33.31855 47.944748 3.0
-0.3422 27.279051 23.805349 3.0
0.1984 32.408352 -31.978451 2.0
7.3628 34.364098 55.661697 3.0
2.444771 36.284977 -38.302177 1.0
16.085386 -11.696206 64.101677 0.0
4.6655 -2.29275 57.20285 0.0
4.30535 34.57325 -15.723926 1.0
-5.6966 40.012451 -14.6284 2.0
5.0536 31.375351 14.23575 3.0
-14.0886 39.964146 -4.862516 2.0
3.1478 0.28705 56.67905 0.0
-15.4127 34.26865 -19.81315 2.0
5.0743 32.848148 -5.41265 3.0
10.6054 -5.23965 58.435749 0.0
16.653084 -7.506666 63.329403 0.0
-0.3047 21.91515 19.858749 0.0
6.9048 17.893951 25.147699 0.0
12.2324 21.595751 30.036751 0.0
6.2992 8.51185 45.310791 0.0
-3.083325 41.096676 -18.054924 2.0
-16.700132 40.836182 -4.47675 2.0
-1.064 30.25845 40.396149 3.0
-1.7273 30.168051 38.92625 3.0
-0.2931 29.7006 18.68055 3.0
5.7775 10.55035 42.679749 0.0
-4.693862 35.698635 -24.286379 2.0
5.09158 12.28083 41.08165 0.0
5.6618 35.833851 -35.425549 1.0
2.9765 6.45265 52.0821 0.0
1.28 21.12475 21.55755 0.0
5.1144 22.326851 15.02605 0.0
4.6553 35.21265 51.914848 3.0
3.85305 30.462551 -12.11705 1.0
2.1422 33.05405 -4.63055 3.0
4.3455 41.456249 71.303696 3.0
6.8573 30.46965 34.631248 3.0
4.5706 33.98695 -11.48275 1.0
-17.261299 40.57795 -9.66725 2.0
5.885166 30.682617 29.131983 3.0
2.6577 38.643051 -33.046349 2.0
5.4261 30.44805 6.29165 3.0
5.6006 32.75145 -18.466749 1.0
8.36105 16.425701 30.21665 0.0
3.50835 22.315149 17.272551 0.0
21.090149 -32.6814 68.151199 0.0
1.8007 37.381351 -34.140949 2.0
5.6709 34.024048 50.3568 3.0
5.6012 31.906851 -12.40235 1.0
2.884567 32.282883 23.305784 3.0
0.54556 30.681311 12.853571 3.0
-23.1786 41.088551 -8.04235 2.0
18.216 -4.92355 62.984348 0.0
1.2815 29.80335 -4.39375 0.0
5.4181 33.5625 -25.884651 1.0
5.2767 37.322151 59.688698 3.0
-1.2913 30.11875 32.358952 3.0
5.1063 -3.92165 58.147598 0.0
-2.44325 35.516685 -27.723269 2.0
2.68155 33.5802 44.838997 3.0
6.6853 16.627649 27.837151 0.0
21.723261 -30.081829 69.260849 0.0
15.27615 -25.808599 66.112656 0.0
1.7654 28.65645 0.73895 0.0
-3.724467 31.704857 -26.853783 2.0
5.49045 -1.43475 56.293701 0.0
4.2934 32.047401 9.460501 3.0
2.497767 32.555149 32.732952 3.0
16.7092 3.33735 56.847149 0.0
2.0622 37.985851 -44.346149 1.0
2.7316 29.077351 -3.47345 0.0
5.13835 19.2642 24.137249 0.0
19.5784 -15.34845 68.159248 0.0
4.9898 37.800549 -60.003948 1.0
14.5741 12.17195 41.005852 0.0
4.8305 36.48645 -48.392551 1.0
2.110867 34.037983 47.713947 3.0
5.3183 42.084351 -71.695053 1.0
7.922875 35.677723 58.266129 3.0
3.7138 36.52615 -24.62825 1.0
2.5941 38.914101 -59.8545 1.0
7.1026 28.49555 24.155317 3.0
11.131101 12.84653 38.31723 0.0
9.9704 16.67555 31.84795 0.0
4.1117 39.156551 69.974548 3.0
2.680467 33.702553 -7.106417 1.0
-5.0867 32.860199 -25.3134 2.0
5.309166 30.910185 24.335449 3.0
15.574 8.01625 45.611149 0.0
3.1015 32.409653 27.87735 3.0
8.732651 1.85745 52.251549 0.0
5.5908 -6.60055 59.339748 0.0
-13.4276 40.62215 -2.19825 2.0
11.112 -6.77275 59.405949 0.0
6.609 32.664848 -0.52155 0.0
0.28686 18.700611 28.960831 0.0
14.02 6.75925 47.592152 0.0
3.25895 39.066803 -49.078247 1.0
-7.0844 35.840752 -21.289499 2.0
17.682829 -11.2631 65.688843 0.0
7.16305 29.68305 5.70755 0.0
2.352038 33.494164 -19.511576 1.0
3.8956 33.263847 -0.10775 3.0
5.847167 39.117352 -72.732521 1.0
3.31805 38.843449 -47.236702 1.0
11.4485 25.13595 18.98715 0.0
7.2575 31.401751 42.437649 3.0
-12.829 39.39785 -7.36205 2.0
13.479733 8.05595 45.275219 0.0
5.8409 24.405451 7.72435 0.0
-13.0586 35.317051 -19.391649 2.0
14.2492 -0.65355 56.820351 0.0
12.30948 10.69727 41.65683 0.0
2.5229 35.329552 -25.219151 1.0
21.947399 -39.92025 67.991249 0.0
19.576 -21.53265 68.45475 0.0
5.10035 39.039101 -52.874847 1.0
6.2212 30.6826 -2.0214 0.0
1.51365 31.50465 0.21255 3.0
3.895225 32.9282 -24.274351 1.0
4.9231 37.103851 -55.309151 1.0
2.5836 35.748051 -28.211149 1.0
18.113899 -32.983597 67.580353 0.0
6.4673 29.50745 25.362829 3.0
6.9805 15.96805 30.23295 0.0
-11.46686 35.500031 -19.721851 2.0
0.1602 40.037151 -22.840549 2.0
18.459801 -23.490549 66.788452 0.0
4.297066 35.17915 -39.274082 1.0
7.1532 18.48035 23.53245 0.0
1.6004 33.19265 42.204948 3.0
4.6398 31.106649 -17.72365 1.0
1.3489 22.35335 18.639851 0.0
6.7562 20.80665 20.056549 0.0
1.0951 29.307949 7.70697 3.0
4.3391 18.53055 26.20105 0.0
-9.0979 38.090698 -15.2388 2.0
3.8477 20.419149 21.57085 0.0
-7.4144 38.273651 -16.557051 2.0
4.2735 32.126881 29.506018 3.0
1.5121 24.16375 14.40945 0.0
2.311466 37.91695 -42.711548 1.0
15.4826 -23.020901 65.464447 0.0
-1.465287 37.463623 -27.675589 2.0
5.2474 38.779751 -77.070953 1.0
5.4798 31.84845 2.19065 3.0
3.2492 34.76915 -11.16595 1.0
4.296767 12.31015 44.766651 0.0
-16.516027 40.836132 -1.526679 2.0
4.1349 -6.03205 59.466648 0.0
16.6472 -3.88395 61.500648 0.0
1.0996 31.699352 18.336576 3.0
5.303333 27.897049 -2.448283 0.0
4.54995 3.35195 52.986198 0.0
4.5302 15.36115 34.5116 0.0
8.3198 27.52025 31.07045 3.0
5.9221 4.34175 50.972752 0.0
6.0702 33.9151 -9.3461 1.0
7.06015 -2.20935 56.31995 0.0
0.363433 32.471554 40.253681 3.0
4.086409 0.663341 55.662399 0.0
0.2608 37.36195 -32.01725 2.0
5.189 38.43795 -69.840248 1.0
5.7121 35.24715 -33.417549 1.0
-18.290834 36.308048 -17.157282 2.0
7.1942 31.54615 46.679249 3.0
2.9717 25.61795 8.52215 0.0
-11.2827 39.747749 -5.75765 2.0
12.2935 1.280683 53.322952 0.0
7.52035 -9.8849 60.679901 0.0
19.3169 -18.79825 68.199951 0.0
11.6977 -4.508517 57.841351 0.0
0.9341 38.916199 -27.13475 2.0
10.317834 23.504349 20.550016 0.0
10.095433 -8.860317 60.151814 0.0
8.285141 -6.36289 58.738667 0.0
6.287933 29.115349 19.635283 3.0
8.7406 28.24185 32.66235 3.0
-6.041933 38.107285 -19.074682 2.0
-16.872349 39.631401 -12.058399 2.0
0.924 34.005348 50.348148 3.0
-15.6915 40.314651 -3.40135 2.0
4.149725 37.160599 -34.830025 1.0
15.104134 -7.699584 61.723583 0.0
4.8698 34.712849 -37.474548 1.0
1.4241 35.93605 -34.681049 2.0
20.720539 -25.843311 69.29879 0.0
22.4147 -29.30695 70.24865 0.0
7.6774 -15.48145 63.50135 0.0
22.790199 -37.19125 68.091751 0.0
9.29568 -5.04477 57.943268 0.0
-11.29875 34.037651 -21.288448 2.0
4.9388 35.705498 -16.282299 1.0
3.9606 8.166417 49.325947 0.0
2.2326 34.582649 -21.129351 1.0
12.452749 6.3809 47.329201 0.0
4.0157 36.453449 -22.441549 1.0
2.289075 36.901024 -39.905548 1.0
2.4307 34.993549 52.034351 3.0
9.8459 17.94385 29.31115 0.0
13.53185 9.64315 43.177151 0.0
-0.3351 30.68305 24.95635 3.0
2.7477 39.667351 -73.693153 1.0
-0.4761 30.347549 23.40535 3.0
-12.2347 37.005585 -17.364084 2.0
1.3303 31.805651 20.33285 3.0
12.49895 -25.657299 66.419205 0.0
15.7925 5.36915 51.39835 0.0
2.1024 37.389351 -48.933849 1.0
2.224 30.491949 -1.75355 3.0
2.1971 39.30645 -27.62435 2.0
7.1906 4.56545 49.89505 0.0
11.468901 -24.6364 66.181152 0.0
2.343 40.20245 -66.232849 1.0
12.913733 16.433817 36.528614 0.0
5.0859 33.761349 -31.37575 1.0
4.6225 25.35095 5.34295 0.0
20.8552 -23.420851 69.974449 0.0
5.5116 31.69595 -14.9039 1.0
3.7158 38.386349 68.268349 3.0
11.4624 -14.24025 62.681198 0.0
2.1745 32.883251 -17.60845 1.0
7.6509 38.99575 63.055248 3.0
17.8193 -26.07085 66.70105 0.0
4.7424 32.595951 40.886749 3.0
6.6432 25.703251 19.93605 3.0
3.88846 32.695908 6.90099 3.0
6.303966 -4.663283 58.123783 0.0
21.2554 -27.57135 70.32605 0.0
2.27 34.98875 -22.539249 1.0
-10.2853 38.054817 -16.059782 2.0
-4.892067 37.35965 -22.163084 2.0
2.305617 32.515514 9.875183 3.0
-0.4145 29.889084 20.289682 3.0
7.916334 5.929283 47.64978 0.0
6.69215 31.506599 39.688499 3.0
2.4339 39.172352 -53.020451 1.0
4.1094 30.76515 -14.75675 1.0
11.1096 -12.76995 62.040119 0.0
1.5777 27.81555 4.55695 0.0
-12.5479 38.810986 -13.048317 2.0
7.5211 24.817949 13.81075 0.0
4.302867 34.750519 -17.342783 1.0
-7.154733 39.940948 -11.31755 2.0
2.73315 39.033699 -67.54705 1.0
5.30028 28.518688 -5.06509 0.0
0.8754 28.28425 12.105651 3.0
-17.924299 37.129551 -16.078617 2.0
-17.879786 41.150208 -1.922336 2.0
4.4906 16.902351 30.244699 0.0
14.5521 4.476525 51.668877 0.0
5.3347 39.376949 -60.443451 1.0
5.853419 6.28787 48.849609 0.0
13.718135 -2.83935 58.09552 0.0
14.2685 -16.482216 63.923115 0.0
8.309075 30.467575 41.262825 3.0
5.76165 39.639648 -67.820602 1.0
7.949767 26.910452 26.29245 3.0
2.75032 39.904907 -69.148788 1.0
5.2513 39.654652 -61.94315 1.0
7.2342 27.785151 7.96445 0.0
5.6355 38.157848 61.25045 3.0
-8.8972 35.786449 -19.76565 2.0
4.556767 8.543683 48.086948 0.0
-15.4459 36.908451 -16.607651 2.0
-15.5202 40.234852 -7.41795 2.0
2.336567 31.842016 -13.891784 1.0
-17.603701 35.472149 -18.03055 2.0
2.7592 34.733051 -29.47875 1.0
5.4055 42.421101 -78.253555 1.0
12.2854 21.253349 31.489651 0.0
19.849482 -25.290091 68.087906 0.0
4.0751 33.5354 -4.71795 3.0
-15.2649 38.661949 -13.98195 2.0
0.32371 38.066338 -29.297232 2.0
0.0519 32.104649 38.45285 3.0
20.5567 -28.029051 68.409149 0.0
2.589 40.95715 -75.30275 1.0
6.9861 27.462399 21.969002 3.0
14.894549 -27.275774 66.565849 0.0
-2.5455 32.69553 -27.671591 2.0
5.125533 38.295017 -49.957516 1.0
3.2396 30.509951 -9.83155 0.0
5.48435 31.349751 26.8995 3.0
5.091633 36.69595 57.941387 3.0
0.5534 31.154751 10.83665 3.0
-13.07764 33.662369 -21.107172 2.0
-20.8689 41.99255 -3.82565 2.0
20.7125 -29.674082 68.282684 0.0
2.35695 34.310852 -36.108749 1.0
3.1664 37.020248 61.079151 3.0
2.42705 30.1453 -7.28445 0.0
1.513767 32.131386 5.671483 3.0
-18.53665 38.674698 -13.67555 2.0
9.6236 18.83445 27.971802 0.0
14.9381 -3.50405 59.687351 0.0
0.65235 31.767349 32.510151 3.0
15.89135 -29.3092 67.029404 0.0
-9.57525 34.554749 -21.309799 2.0
3.66465 40.0326 -54.898247 1.0
-0.31745 37.256878 -30.274626 2.0
20.060633 -23.128485 68.918449 0.0
18.694666 -29.873316 67.234932 0.0
10.148899 9.251099 42.44685 0.0
10.8961 -3.1251 56.726852 0.0
18.721649 -19.858749 67.430893 0.0
1.6985 28.406549 8.69325 3.0
7.919956 21.897137 19.707018 0.0
13.292601 -27.667702 67.130371 0.0
-14.0036 34.553951 -19.98185 2.0
17.393299 -21.94425 66.262253 0.0
0.50406 32.85741 43.13559 3.0
5.9614 29.92985 22.377251 3.0
3.7137 32.488518 11.965116 3.0
-17.901699 41.342751 -4.1051 2.0
14.283066 3.50215 52.90575 0.0
-10.916525 36.678947 -17.718925 2.0
9.3713 27.82725 14.22955 0.0
7.7475 28.74575 30.215151 3.0
-19.1096 41.38295 -5.6815 2.0
2.5114 33.821949 -14.98865 1.0
2.5362 32.729126 7.303575 3.0
5.3135 32.885151 -27.041149 1.0
7.2966 -3.53465 57.175049 0.0
12.9099 8.7723 44.186001 0.0
-23.5833 42.485649 -3.19445 2.0
-19.634501 37.904716 -15.44205 2.0
8.3203 19.901751 23.80805 0.0
6.6722 -12.02315 61.655151 0.0
2.655267 38.49585 -58.582748 1.0
4.0252 38.15155 -36.222649 1.0
2.5961 33.65625 -5.73785 3.0
6.0917 21.048599 17.6686 0.0
15.1668 -18.96575 64.748749 0.0
8.2549 12.848283 36.087017 0.0
18.4424 -15.08915 67.147652 0.0
7.1028 32.208248 49.928749 3.0
3.6789 37.234749 -56.106251 1.0
5.245 31.93615 -22.50395 1.0
1.8453 24.712349 12.8214 0.0
2.7247 37.9202 -55.045502 1.0
5.7268 3.48595 51.979874 0.0
1.5975 31.92255 23.032049 3.0
2.5348 29.494549 -4.7489 0.0
5.553733 41.500282 -75.713387 1.0
-9.6037 39.22205 -10.05075 2.0
14.956 1.20295 56.277248 0.0
2.1722 32.925152 38.22155 3.0
5.471633 -0.310217 55.498447 0.0
2.3458 15.97595 38.59045 0.0
5.323 31.062851 20.56105 3.0
9.9186 6.3868 45.952549 0.0
5.2738 38.4758 -66.882645 1.0
19.2829 -26.300249 67.431755 0.0
7.8604 28.05835 9.77365 0.0
10.5656 20.069429 27.874411 0.0
2.9147 35.632385 54.076584 3.0
12.092866 14.329884 37.507214 0.0
0.9661 31.601749 24.939751 3.0
6.1514 31.549749 38.410252 3.0
6.7799 30.75745 36.118351 3.0
23.1691 -32.284649 69.84005 0.0
5.1348 31.988649 36.551651 3.0
5.0034 20.10285 22.13875 0.0
16.864449 -33.488998 68.062546 0.0
7.10015 31.5077 3.92935 0.0
-2.3514 40.336948 -20.587151 2.0
0.3512 27.475451 9.46695 0.0
21.053049 -24.841099 70.102554 0.0
0.6499 28.461849 5.33535 0.0
7.71995 28.494949 28.75415 3.0
1.2709 30.3118 4.328 3.0
2.6587 39.70063 -62.676048 1.0
3.32255 32.34145 20.9527 3.0
4.2193 40.658749 -63.17635 1.0
15.932851 -10.288067 63.675152 0.0
11.501884 11.102733 40.696781 0.0
8.2119 2.81275 51.340149 0.0
3.5142 -1.7145 57.479267 0.0
-1.129933 28.697184 25.897551 3.0
5.5559 35.041752 -18.196449 1.0
10.0993 -7.6906 59.546825 0.0
3.888825 32.685051 34.290352 3.0
5.8691 39.18285 -64.248947 1.0
6.176175 27.864475 3.6816 0.0
4.4945 33.850552 -29.446518 1.0
-12.898849 40.009499 -4.30405 2.0
5.6954 41.477249 -77.3853 1.0
8.895101 7.8386 44.293625 0.0
17.51025 -18.484699 65.957298 0.0
5.06102 11.69523 42.53907 0.0
5.6043 37.162251 -39.225849 1.0
18.0264 -17.22135 66.577454 0.0
8.91135 -13.25775 62.283752 0.0
4.2727 40.017849 -59.199451 1.0
21.5173 -37.398048 67.860451 0.0
5.3931 38.574051 -74.105247 1.0
6.7585 33.167648 -2.91455 0.0
3.6631 4.31245 53.025349 0.0
1.5734 30.707001 1.2472 3.0
2.2814 32.368782 12.563083 3.0
6.725633 28.295982 20.551315 3.0
5.1156 35.897652 -36.946201 1.0
4.2763 25.33905 7.42205 0.0
16.74 -30.310249 67.19355 0.0
1.748 29.54035 3.06295 3.0
2.48642 32.456627 30.73583 3.0
8.32895 24.2917 16.0714 0.0
1.5999 25.766251 10.46875 0.0
8.324101 -17.478531 64.324135 0.0
-2.7592 34.30365 -27.35375 2.0
7.9998 29.035351 34.599949 3.0
3.3689 14.93295 40.324749 0.0
3.72445 36.07465 -45.131599 1.0
4.16835 13.07615 43.574501 0.0
5.0175 35.639351 -42.61805 1.0
4.079934 32.699783 36.967651 3.0
4.89695 36.692451 -49.666702 1.0
6.47915 29.897049 28.0319 3.0
-0.0254 27.7073 19.148949 3.0
0.0068 33.315552 51.83345 3.0
6.6656 23.460499 14.13115 0.0
5.564475 34.269924 -15.314825 1.0
3.69028 5.26515 52.155434 0.0
17.8395 -15.93325 66.362251 0.0
1.2495 32.806351 -12.20225 1.0
8.3035 26.479425 12.935825 0.0
-0.322 35.058449 -31.12355 2.0
7.875467 37.340649 60.424015 3.0
16.8776 -9.34255 64.123421 0.0
1.7898 30.73805 -8.31485 0.0
8.4504 30.035851 38.71875 3.0
16.6234 4.67675 52.140049 0.0
4.9738 35.15395 -19.60705 1.0
4.0565 28.296 -3.50755 0.0
18.625401 -36.857552 69.100647 0.0
11.0082 7.17705 45.57325 0.0
5.6336 34.17495 -20.41045 1.0
4.1567 40.852951 -64.748848 1.0
-5.839725 34.095924 -24.060226 2.0
3.5344 33.55695 -1.30605 3.0
3.4832 36.868599 -50.995399 1.0
15.86595 1.714375 57.115997 0.0
11.944 -9.76025 61.041351 0.0
3.8961 42.130699 -76.302155 1.0
-18.079399 40.762852 -8.42335 2.0
16.0854 -24.12413 65.878571 0.0
3.7667 27.964649 -0.95195 0.0
5.9531 23.587749 10.05625 0.0
3.2266 32.747551 14.60415 3.0
3.6258 37.410149 59.948051 3.0
14.0378 0.27315 55.970951 0.0
-6.7055 39.275482 -14.881183 2.0
-11.572 38.284351 -14.01645 2.0
9.06525 28.683949 12.240499 0.0
12.8955 -4.66655 58.71035 0.0
3.706866 32.663483 -21.648384 1.0
5.66385 -7.925975 59.840775 0.0
4.0665 39.011749 -34.804352 2.0
10.6543 16.219549 32.91135 0.0
11.9827 -0.78755 55.335949 0.0
1.5002 28.4762 2.1081 0.0
3.90035 21.025902 20.137699 0.0
4.8819 6.47657 49.694992 0.0
4.9653 38.330399 -47.212101 1.0
3.715529 37.685192 62.098225 3.0
9.729444 24.504351 18.122606 0.0
2.15465 32.940353 0.5244 3.0
3.6187 33.748852 -3.55565 3.0
13.7186 -23.571899 65.301147 0.0
6.7544 22.070976 17.321974 0.0
5.20725 36.471149 -47.086998 1.0
1.8261 31.29665 -2.77955 3.0
-0.16386 32.71899 48.92535 3.0
-4.0458 35.016548 -25.525551 2.0
5.1563 36.22295 -44.157051 1.0
-20.465549 41.138599 -8.31245 2.0
3.88045 34.459198 -31.72105 1.0
11.2586 22.512825 24.56485 0.0
20.211201 -18.953751 69.080353 0.0
-8.70155 31.756624 -24.165401 2.0
4.1304 36.39875 -26.524549 1.0
6.6311 29.72665 2.32855 0.0
16.915937 -6.145263 62.940006 0.0
5.46075 41.8409 -73.035248 1.0
-7.12515 37.48365 -19.25205 2.0
13.91613 5.47117 49.49762 0.0
1.33735 29.3503 -0.9452 0.0
5.323425 32.899601 -23.314526 1.0
7.9244 30.59515 39.971249 3.0
10.9066 2.452183 51.268452 0.0
6.6065 39.979252 65.201553 3.0
4.2595 41.440048 -68.927147 1.0
3.9262 31.740299 -18.680149 1.0
-17.0716 39.034851 -13.16175 2.0
4.2957 36.334984 -21.219515 1.0
-0.205 38.234749 -28.16375 2.0
11.3483 -23.412701 65.870346 0.0
19.459566 -24.111216 67.881454 0.0
8.765699 16.039101 31.3433 0.0
5.52055 40.930374 -70.901054 1.0
0.2649 26.81995 19.99375 3.0
12.317401 3.244583 51.239918 0.0
-0.8769 29.17495 23.20705 3.0
9.07732 5.08295 48.131733 0.0
0.2225 25.849449 11.83575 0.0
5.9369 39.493149 -69.12545 1.0
6.9578 30.26565 32.605949 3.0
4.0211 28.559151 -5.86665 0.0
18.495234 -10.499618 66.301582 0.0
10.0717 21.361349 23.99765 0.0
8.457566 7.247549 45.500416 0.0
4.115 38.987751 -75.652847 1.0
-1.9573 36.52985 -28.349051 2.0
17.693401 -24.426201 66.466148 0.0
4.2339 32.038052 13.35305 3.0
5.9699 34.808151 -11.64495 1.0
6.707533 -13.542651 62.476917 0.0
7.71155 17.31665 27.650249 0.0
5.66302 30.466211 17.691189 3.0
4.4165 23.83275 12.43075 0.0
13.6782 -29.27985 67.769196 0.0
12.08725 4.6772 49.301598 0.0
8.67975 -4.1155 57.38155 0.0
5.6517 26.75675 4.15785 0.0
18.97975 -17.53735 67.839249 0.0
4.3658 17.39325 29.10615 0.0
17.911249 -19.691277 66.499672 0.0
4.113266 14.241584 39.322315 0.0
3.91675 29.500999 -8.14855 0.0
6.09995 22.921001 12.6894 0.0
2.7426 40.113976 -64.908257 1.0
18.4914 -8.17855 65.220253 0.0
10.307131 20.703196 26.105762 0.0
5.62702 39.305309 -71.507225 1.0
3.0475 19.651751 24.13015 0.0
6.941 19.18605 22.09045 0.0
1.722383 38.755085 -29.6968 2.0
18.3339 -7.18275 64.453552 0.0
5.8479 13.58605 36.423851 0.0
4.8292 10.693501 44.823151 0.0
3.487667 2.271716 54.761486 0.0
4.12535 40.50658 70.126015 3.0
4.2491 40.37925 72.458153 3.0
1.8455 23.207251 16.279449 0.0
-11.7964 37.44445 -15.22685 2.0
3.5554 35.44355 -42.471851 1.0
5.5355 31.854549 -0.26385 3.0
-10.143066 38.466351 -13.068817 2.0
2.9888 41.710403 -78.517654 1.0
4.11705 29.96455 -10.89845 1.0
5.673467 7.478416 47.72945 0.0
14.6597 -2.5219 58.830849 0.0
18.472599 -28.528324 67.057274 0.0
8.25315 14.6635 32.268402 0.0
4.6796 37.304951 -54.117249 1.0
2.917767 32.740086 35.44318 3.0
-2.8359 39.007751 -22.265051 2.0
2.5028 32.240051 18.1098 3.0
5.491833 12.825616 38.707981 0.0
5.7224 30.462851 8.63725 3.0
4.30125 36.319199 -37.931602 1.0
-7.7325 38.928051 -13.526183 2.0
-5.896334 31.926582 -25.16745 2.0
-1.1932 28.2463 29.6483 3.0
0.6821 28.537951 4.04935 0.0
4.09065 41.316799 -70.687347 1.0
-21.518951 42.225151 -2.8149 2.0
1.7299 18.07855 29.754049 0.0
5.094267 37.123249 -52.051285 1.0
6.0504 15.61955 32.376549 0.0
-1.43545 30.506248 36.269897 3.0
9.13805 26.291149 15.037774 0.0
9.066167 11.924518 37.641766 0.0
2.8295 33.268848 42.165249 3.0
3.85965 32.882599 3.5294 3.0
4.505133 32.679352 38.928452 3.0
4.9341 33.54195 -9.58725 1.0
4.0258 34.615349 -33.243752 1.0
6.86495 36.829552 59.273949 3.0
-7.2136 37.233349 -20.69985 2.0
7.6689 30.77095 6.28255 0.0
-9.72592 32.738132 -22.879929 2.0
13.7799 -25.000851 65.807053 0.0
-1.48055 38.105202 -26.22085 2.0
19.0299 -12.67795 67.355148 0.0
19.4786 -27.728201 67.533997 0.0
14.93795 2.46575 55.075798 0.0
9.5264 -3.39355 56.84045 0.0
17.0124 -15.62675 65.52565 0.0
5.7648 40.126076 -75.344025 1.0
6.48005 26.920551 18.2363 3.0
-3.5175 36.931648 -26.37735 2.0
5.9353 16.24715 31.058399 0.0
10.1335 -16.413383 63.556351 0.0
4.7399 31.336899 19.17815 3.0
-8.7942 38.779251 -11.93925 2.0
-19.179501 39.554253 -11.765699 2.0
-17.915699 39.907997 -11.499849 2.0
8.5562 17.108049 29.235849 0.0
-4.837 40.032051 -16.616699 2.0
6.23435 32.6828 -6.057 0.0
3.340217 38.62598 -45.318466 1.0
16.988501 -13.95695 65.434151 0.0
15.937237 -5.486938 61.675865 0.0
17.1807 7.27925 47.5033 0.0
3.4396 33.917751 -37.216949 1.0
3.7548 32.199348 26.824051 3.0
-1.124367 36.274117 -30.271217 2.0
-3.9512 39.307526 -20.099625 2.0
16.153648 -3.08695 60.66185 0.0
20.308434 -20.909817 69.554115 0.0
5.2588 38.745903 63.294998 3.0
3.8922 23.44095 14.11715 0.0
8.3223 29.79475 43.622749 3.0
17.395599 -27.94455 66.801849 0.0
-15.3657 39.603149 -11.43935 2.0
6.2323 29.197651 1.18145 0.0
5.3444 31.091049 11.02875 3.0
8.6558 19.357016 25.507416 0.0
10.490967 23.513216 23.090284 0.0
-19.699099 40.426483 -10.563416 2.0
6.2991 0.29315 54.667583 0.0
11.21736 19.87557 29.700291 0.0
6.734167 9.705617 42.683186 0.0
17.193199 -20.75305 66.076248 0.0
3.582 37.911751 64.150749 3.0
5.6763 35.053349 -25.95545 1.0
7.5716 29.169651 7.8302 0.0
5.8124 30.62495 25.42285 3.0
2.6407 33.247452 2.24035 3.0
14.485791 14.131819 39.561829 0.0
5.246 32.99305 -7.83035 1.0
4.7387 31.991449 4.83875 3.0
-10.134 37.173985 -16.955683 2.0
12.5745 18.070551 34.706249 0.0
4.6217 31.52405 16.571251 3.0
2.464 32.621349 -16.474751 1.0
3.8022 35.418751 -20.62545 1.0
-1.319 31.313049 43.70245 3.0
3.5132 35.205448 51.554451 3.0
0.24575 28.0714 16.707251 3.0
3.12715 40.317051 -76.586395 1.0
8.464001 25.1134 15.1465 0.0
-10.154751 39.5466 -7.05985 2.0
3.649467 37.334183 65.484749 3.0
-0.70755 28.890999 21.659248 3.0
5.64485 27.51185 1.8817 0.0
5.8033 34.67535 -13.77225 1.0
-10.5186 35.877499 -19.099899 2.0
-14.2319 39.588551 -8.47985 2.0
10.0398 13.70055 36.164452 0.0
1.9612 31.74365 -10.56895 0.0
-1.079575 30.928402 38.10355 3.0
4.5285 38.255501 -62.06295 1.0
2.4656 38.929199 -57.275101 1.0
5.3062 29.88415 -9.655217 1.0
8.6872 -12.05011 61.665394 0.0
9.24265 10.94675 39.142403 0.0
5.23435 38.9118 -56.235802 1.0
-11.308816 40.07053 -4.320633 2.0
19.272701 -37.267448 68.155197 0.0
-13.9271 39.75185 -6.14785 2.0
6.24995 30.703098 30.266201 3.0
2.254867 16.675617 34.725082 0.0
-1.2528 28.706499 27.4519 3.0
2.6481 32.961948 39.393951 3.0
10.7328 -18.03565 64.190552 0.0
18.417534 -22.315619 66.976723 0.0
5.4399 26.77965 -0.02855 0.0
-6.118967 38.745052 -16.957451 2.0
-0.977067 28.304148 24.430052 3.0
20.998699 -27.25075 69.21035 0.0
3.6435 15.39715 35.789749 0.0
2.4564 37.418049 -50.074451 1.0
5.5036 31.35425 28.22945 3.0
-0.11075 29.71665 17.078949 3.0
1.94465 31.48905 -6.3702 0.0
5.2697 34.378349 -28.19655 1.0
-6.509366 40.134617 -12.295184 2.0
5.5906 29.05575 -4.02015 0.0
16.3584 -1.34495 59.764351 0.0
1.1014 39.161648 -25.489149 2.0
1.8831 32.333149 11.04785 3.0
5.4398 33.70435 -17.719875 1.0
8.2667 23.141649 17.85475 0.0
12.100821 -2.47951 56.729687 0.0
-20.892 41.571953 -7.0548 2.0
2.6972 34.577351 -28.07815 1.0
6.141767 31.934183 40.670715 3.0
19.765949 -16.51725 68.443748 0.0
1.9151 32.20615 28.40815 3.0
-7.48822 32.289589 -24.089428 2.0
3.1881 31.54855 -14.65655 1.0
0.7555 28.186951 7.17315 0.0
4.9007 35.551552 -26.81505 1.0
5.6879 20.48255 19.67075 0.0
3.4094 35.176651 -36.649151 1.0
4.5153 39.166199 -51.430698 1.0
4.9722 42.453152 -75.198853 1.0
-17.299549 38.059849 -15.1394 2.0
4.1479 33.138351 -2.43935 3.0
7.9327 10.15185 40.88485 0.0
4.1567 42.046898 73.570999 3.0
-0.2686 31.315424 33.09095 3.0
17.742001 -9.23445 64.917152 0.0
0.1616 31.837982 35.132847 3.0
15.053241 -0.63917 57.907288 0.0
0.7215 31.49165 -6.09865 0.0
