# .PCD v0.7 - Point Cloud Data file format
VERSION 0.7
FIELDS x y z label
SIZE 4 4 4 4
TYPE F F F U
COUNT 1 1 1 1
WIDTH 1472
HEIGHT 1
VIEWPOINT 0 0 0 1 0 0 0
POINTS 1472
DATA ascii
-13.7393 43.906898 -103.6558 1.0
-12.114 28.318748 44.718849 0.0
-10.7981 28.7805 35.5532 0.0
-6.8829 29.132099 12.9339 0.0
2.4779 31.4512 63.925449 0.0
-15.289233 39.2701 -65.940498 1.0
-11.717199 37.373901 -66.378204 1.0
17.306534 -11.718234 43.058533 3.0
-3.0089 25.8538 -3.1018 3.0
-4.294333 23.398182 -4.907025 3.0
13.110133 2.921567 32.134468 3.0
-5.61625 31.18265 52.113926 0.0
-5.4006 15.69155 9.824551 3.0
-3.9193 38.376865 81.345238 0.0
9.655417 2.335319 29.56986 3.0
-12.9747 27.7393 48.946602 0.0
-26.631311 33.637722 -54.090866 2.0
-11.101 30.878399 60.251499 0.0
-0.51335 14.69765 9.693801 3.0
-12.8518 28.7649 54.281101 0.0
-7.4973 29.521601 5.7588 0.0
-37.657574 42.204922 -42.128418 2.0
-30.098259 37.718185 -49.40625 2.0
-11.607824 35.907951 -45.036625 1.0
8.105495 12.63655 21.427164 3.0
-6.9805 30.528299 33.769901 0.0
-11.0798 24.475599 -11.3214 3.0
0.132335 44.658794 93.375107 0.0
20.879099 -13.506034 46.442432 3.0
-13.92515 36.157349 -49.070301 1.0
-7.4564 33.4501 -22.701599 3.0
4.344055 13.668369 15.807277 3.0
-8.151067 30.197449 41.367584 0.0
28.638031 -28.894232 51.412186 3.0
-13.2584 34.5662 -57.330601 1.0
30.643494 -28.614632 53.166767 3.0
32.045547 -35.388451 51.158649 3.0
-16.042316 39.620609 -80.166939 1.0
-16.711201 42.715401 -106.3367 1.0
-8.6071 31.864799 -23.7558 1.0
-11.3508 30.5385 -14.1542 0.0
1.614033 11.190732 14.451716 3.0
-12.530701 24.36035 30.625626 0.0
-13.2957 40.945099 -65.177048 1.0
-11.652434 33.364483 -23.608885 1.0
-2.8972 15.110433 9.366466 3.0
-2.6625 26.229 39.361599 0.0
-10.6287 28.975651 -12.3497 0.0
16.50795 -15.9126 45.065948 3.0
-18.77515 35.167751 -59.693497 2.0
-13.9104 41.217049 -82.080902 1.0
3.12955 43.096199 90.299316 0.0
-16.951473 36.370125 -63.291626 2.0
-21.5851 40.602325 -51.886726 2.0
-6.6932 30.476049 35.721703 0.0
-10.522449 25.727051 6.1085 0.0
-3.1136 23.7169 30.2565 0.0
-15.4048 41.8302 -91.299202 1.0
-13.3635 39.926552 -100.4276 1.0
24.441166 -19.60014 49.770042 3.0
-7.0724 22.9151 19.624399 0.0
17.493351 -5.15835 38.874149 3.0
-11.9833 38.402802 -72.028397 1.0
11.0733 -18.667299 47.923801 3.0
-6.6203 29.8444 -16.217199 3.0
2.72755 50.655647 103.84785 0.0
-10.1826 29.8493 49.938 0.0
-4.5381 25.0352 26.373899 0.0
-12.237 27.361 33.797199 0.0
30.404514 -31.642349 51.644356 3.0
-4.34165 16.951149 6.0664 3.0
18.915781 -13.698 44.89946 3.0
16.902651 -8.389225 40.671776 3.0
-31.387888 41.920284 -39.111122 2.0
-16.309534 42.2672 -98.898003 1.0
-11.094225 32.694023 -17.908899 0.0
-10.1611 24.313499 -10.6044 3.0
-10.3409 34.161999 -41.551399 1.0
-7.660645 30.355265 -19.560366 3.0
-10.564375 29.293501 19.113075 0.0
17.874516 -3.178458 37.076813 3.0
-13.07475 34.14415 -48.11095 1.0
-11.3718 29.4391 -4.4273 0.0
-11.924434 31.139334 -13.956267 0.0
-5.905134 32.6856 61.070034 0.0
-10.4072 33.369598 -41.335503 1.0
3.8869 5.5503 23.878901 3.0
-11.985175 31.319149 -18.612598 0.0
-32.375923 40.297523 -45.684975 2.0
15.3231 -8.295878 39.902767 3.0
-5.044933 30.894434 49.070004 0.0
-11.67855 26.379925 20.903408 0.0
-11.4689 31.027451 -26.0989 1.0
9.86593 10.427169 26.182718 3.0
-32.90316 42.308239 -39.702721 2.0
-3.103 40.854851 86.697052 0.0
-1.421378 39.088139 81.689079 0.0
22.649378 -32.388165 49.976292 3.0
4.1453 -0.002 35.529701 3.0
-29.706287 41.408463 -40.633919 2.0
-4.9267 33.020798 60.471802 0.0
-21.856199 42.065201 -48.776299 2.0
-4.285033 20.925734 -3.882467 3.0
-29.313015 37.905949 -49.608097 2.0
-12.712605 28.714773 48.600292 0.0
-30.361963 41.591431 -39.608471 2.0
-4.24908 25.90336 29.90036 0.0
-28.106152 40.646198 -44.795601 2.0
-10.6637 28.989 26.160601 0.0
1.388742 44.920273 93.229309 0.0
11.5302 5.686133 29.724401 3.0
3.7264 1.418225 32.887573 3.0
-10.639767 23.874048 22.122833 0.0
3.5699 8.7519 19.551399 3.0
7.24905 5.55595 25.34375 3.0
10.888967 -4.200886 35.88348 3.0
-10.042999 29.300701 25.1376 0.0
-10.39445 30.406509 51.863773 0.0
-13.3921 35.323101 -58.389999 1.0
-27.297401 42.565849 -36.546474 2.0
-5.910325 30.927225 45.463947 0.0
-31.8876 35.70015 -50.753078 2.0
-12.2923 31.8013 -29.630699 1.0
-15.159651 41.129852 -57.423553 2.0
-6.0244 29.2407 35.426998 0.0
-4.896211 32.374222 57.33078 0.0
23.098351 -31.1082 49.761902 3.0
-2.306392 30.486332 55.618973 0.0
-0.0686 13.9102 11.0718 3.0
-7.909634 30.505198 47.405533 0.0
-12.61025 25.902 29.3503 0.0
-11.69235 31.671 -31.919048 1.0
6.603087 5.074138 25.079111 3.0
-3.6898 29.339352 47.230949 0.0
3.152233 18.258934 12.0922 3.0
-35.696663 44.289627 -33.589699 2.0
-13.2809 42.6623 -98.156998 1.0
7.405272 3.825894 26.668962 3.0
-0.907675 35.625122 74.178551 0.0
1.3368 38.047401 81.465202 0.0
-2.558654 22.871075 -0.115618 3.0
-8.90695 30.44495 9.50095 0.0
-13.621 27.1737 46.388199 0.0
-11.941299 38.098999 -71.259552 1.0
-13.4353 34.154499 -40.594101 1.0
-11.336846 36.342365 -50.649643 1.0
10.312066 0.667967 31.306566 3.0
-11.630199 37.067398 -55.334351 1.0
1.334375 31.153168 61.822456 0.0
17.091967 -13.1208 43.530964 3.0
-28.0784 36.998901 -51.3937 2.0
-27.640036 34.854977 -52.843353 2.0
-7.906367 30.159134 38.044201 0.0
-21.886267 41.335831 -49.8871 2.0
34.044468 -41.91357 49.619202 3.0
-15.371142 39.426426 -70.590561 1.0
40.165199 -50.5853 47.523499 3.0
-8.9358 24.724899 13.6882 0.0
-2.156583 26.146252 -1.46035 3.0
4.88055 47.871849 96.270752 0.0
-6.7018 29.540751 27.30405 0.0
12.908625 -1.913967 34.568901 3.0
16.1721 -12.6176 42.569698 3.0
-5.3091 16.738949 7.24385 3.0
-11.1844 28.9839 -9.8908 0.0
-0.7276 22.107727 3.925275 3.0
-9.0168 31.478201 -14.2582 0.0
-4.85 13.6051 12.7606 3.0
-5.28675 20.17775 -0.69175 3.0
-6.34305 23.131199 -9.1061 3.0
-8.610275 30.691599 51.382324 0.0
2.596573 42.307484 89.84581 0.0
-7.272 32.462601 59.895401 0.0
9.3003 -5.9489 38.984402 3.0
-3.74655 21.5438 -3.30615 3.0
-9.0172 29.300699 -22.978399 3.0
-18.693726 36.599228 -60.126648 2.0
29.440449 -27.093599 52.775848 3.0
-13.1197 41.6222 -103.3747 1.0
-12.600325 38.633614 -66.419342 1.0
-8.798101 32.500599 -24.7208 1.0
-11.079399 26.123474 -14.94575 3.0
10.360875 -15.15615 46.730801 3.0
-11.548733 24.074165 26.7069 0.0
-8.10235 30.278549 22.04295 0.0
18.4832 -1.0761 35.454899 3.0
12.57715 -7.9172 39.58345 3.0
15.7295 -8.71455 40.56535 3.0
2.297725 1.368725 33.493275 3.0
-37.081432 44.36623 -36.092602 2.0
-4.6624 28.539766 38.683567 0.0
-13.33305 37.732651 -79.905602 1.0
-15.9519 39.706966 -63.084198 2.0
-41.010899 44.094101 -37.6133 2.0
-2.913 31.81155 57.904751 0.0
2.1841 17.818899 11.0934 3.0
-14.3298 37.676601 -57.996799 1.0
26.2985 -37.107651 49.7635 3.0
18.286549 -25.935501 48.8241 3.0
-5.682467 29.455801 39.051865 0.0
1.7475 39.041 85.0271 0.0
-9.624825 30.726173 6.87305 0.0
-12.3284 36.8218 -51.285099 1.0
2.4618 38.1576 84.175903 0.0
-6.7451 29.350201 19.4545 0.0
-12.116 40.0396 -81.131401 1.0
1.099833 42.4953 88.9823 0.0
23.768499 -17.927299 49.228901 3.0
11.64285 -14.349125 45.440498 3.0
0.119825 42.456432 87.632393 0.0
-5.4616 27.2864 21.400801 0.0
10.378091 4.624858 29.039526 3.0
23.346493 -18.860184 48.902149 3.0
-32.771 38.109501 -48.693001 2.0
-7.92328 31.403196 52.354908 0.0
-5.4048 32.883793 62.543076 0.0
-4.6683 28.4119 36.152351 0.0
31.104 -40.63776 49.680832 3.0
-14.38935 39.6423 -97.779846 1.0
34.2281 -36.375099 52.791698 3.0
-10.0556 23.8006 -9.2355 3.0
-10.6624 30.198099 -26.8729 1.0
-0.70435 29.115551 53.280853 0.0
-3.3467 27.868626 40.702 0.0
-1.626667 24.381289 3.361533 3.0
-8.08165 30.02755 28.711849 0.0
0.0197 17.695801 7.7268 3.0
-10.373384 29.704683 -18.104401 0.0
26.601355 -20.36471 51.39267 3.0
-10.879058 30.834045 57.897648 0.0
-6.54845 30.01675 37.6936 0.0
-10.3339 28.5844 -10.1077 0.0
-4.13085 37.28495 76.379997 0.0
4.2927 4.875 25.105499 3.0
-0.883267 37.126266 77.656395 0.0
-11.383739 26.703598 14.860153 0.0
-9.584438 29.835012 21.430126 0.0
-10.9029 30.524799 -2.0735 0.0
-8.9643 27.909599 -21.331749 3.0
-12.143917 29.483433 -4.841317 0.0
-11.7795 32.141201 -16.208 0.0
3.1694 8.1466 19.3183 3.0
-8.7691 27.476101 -20.2269 3.0
-8.114467 24.128035 16.219067 0.0
-13.7819 38.580502 -62.653099 1.0
-7.892616 29.588333 15.861465 0.0
-10.621792 29.338831 43.603779 0.0
-6.5021 29.5653 28.354601 0.0
-33.088711 42.843498 -38.131031 2.0
20.587893 -18.72084 47.340569 3.0
-12.289828 36.933247 -52.543926 1.0
4.0992 6.7475 21.281799 3.0
-6.0521 16.5133 9.0277 3.0
-3.869625 20.29105 -1.531075 3.0
26.112921 -35.403652 49.72908 3.0
-5.9993 30.4063 44.452999 0.0
-11.5457 25.9049 20.33605 0.0
-13.7659 39.763 -66.462196 1.0
-0.595217 12.069166 14.453867 3.0
12.8272 -5.0282 36.3531 3.0
2.08226 30.699478 60.87746 0.0
-11.4277 28.7232 4.6548 0.0
25.595205 -21.922688 50.610752 3.0
-15.311417 39.569931 -71.419121 1.0
2.89926 49.098721 98.948158 0.0
-13.2965 34.4613 -56.586102 1.0
-12.8767 38.381252 -63.389603 1.0
-3.92265 34.070351 64.6007 0.0
-1.298775 26.161924 45.827648 0.0
-12.2174 27.1537 -21.211599 3.0
-3.379647 34.101505 66.71846 0.0
26.1761 -19.447399 51.005901 3.0
-4.3213 22.098751 -5.4029 3.0
4.9045 43.450802 92.5065 0.0
2.7988 33.310699 74.511101 0.0
-4.140667 24.6075 27.713051 0.0
15.420952 -2.348417 35.823349 3.0
-12.813625 40.618324 -93.865479 1.0
-10.83685 25.816399 12.9221 0.0
-16.4568 41.033298 -93.255203 1.0
-9.522475 29.96925 34.261551 0.0
-2.8648 29.360649 49.484848 0.0
-12.3803 26.954599 30.278799 0.0
21.638451 -12.97145 46.955151 3.0
16.6364 -11.0295 42.181301 3.0
-11.798651 32.804298 -20.113501 0.0
14.649875 -16.324326 45.798477 3.0
-9.491532 31.716499 61.535801 0.0
-11.903376 36.656326 -66.172226 1.0
-16.369801 41.183102 -94.704597 1.0
-28.907999 40.433201 -44.494766 2.0
-2.008633 21.065233 2.1304 3.0
22.398682 -27.097614 49.164207 3.0
-2.087467 14.5302 10.310367 3.0
0.5663 12.059099 13.0257 3.0
-1.50635 42.264252 88.821899 0.0
-6.05715 25.6759 -12.5246 3.0
-4.387567 32.51767 60.550812 0.0
-7.0029 26.8678 -15.5995 3.0
18.060215 -13.081934 44.161743 3.0
19.107758 -29.603933 49.77478 3.0
37.118942 -43.127289 50.391991 3.0
-12.4993 34.510399 -33.672298 1.0
-20.757999 38.481499 -56.148998 2.0
33.1898 -45.584099 49.4799 3.0
-33.427071 42.794685 -39.344021 2.0
33.1017 -36.813301 51.259399 3.0
-5.5457 25.693174 -9.926275 3.0
-7.876 30.367334 42.609066 0.0
8.349475 0.443575 30.71105 3.0
-18.640249 38.124001 -60.592449 2.0
-9.694 31.3626 -5.6604 0.0
-7.26975 23.646301 -8.56555 3.0
-34.338501 39.790501 -46.216003 2.0
6.7201 -4.8844 41.785797 3.0
6.1085 1.1236 30.5536 3.0
-6.1255 32.040001 -18.931299 3.0
-1.1438 42.530548 92.30835 0.0
-8.177151 29.40155 -22.420448 3.0
25.809401 -39.57785 50.382473 3.0
0.12075 10.76965 16.40745 3.0
-21.047251 39.32645 -55.1618 2.0
-1.49095 25.2356 43.677002 0.0
-11.903351 29.658291 -6.86683 0.0
-11.0118 27.2922 6.9225 0.0
-12.3552 32.957703 -24.8494 1.0
-0.5079 15.298134 8.648767 3.0
-2.1675 23.3871 32.996101 0.0
22.719999 -11.0137 47.846401 3.0
9.898233 -2.554167 34.174049 3.0
-10.9252 27.8932 -19.434799 3.0
-5.2838 18.706301 2.0501 3.0
-10.04035 32.513802 -35.818951 1.0
-8.610601 19.5005 0.8926 3.0
13.3551 6.2668 31.671301 3.0
-0.289033 13.973 9.729267 3.0
-0.922817 42.634441 90.083839 0.0
-13.402451 37.141449 -68.563446 1.0
-13.705267 35.897366 -63.853168 1.0
3.4723 52.5984 104.4115 0.0
-6.849 36.2229 77.661949 0.0
-3.0343 25.341724 -3.6416 3.0
-3.5609 27.86755 39.689247 0.0
2.361825 12.348425 15.01215 3.0
1.0665 26.990801 51.150299 0.0
15.11362 -9.73294 40.916981 3.0
-22.515266 35.501736 -55.348831 2.0
6.8129 -0.3698 31.825001 3.0
36.158249 -48.87215 48.489918 3.0
0.5984 4.80055 25.7299 3.0
-10.613951 34.88105 -46.89045 1.0
-13.6896 35.041901 -42.769798 1.0
-10.062 21.9928 -5.1112 3.0
-6.61705 31.16205 52.294075 0.0
-6.0441 17.9151 4.3747 3.0
3.13325 1.70535 31.365349 3.0
26.89505 -36.262154 49.639427 3.0
-0.1319 44.821701 95.257401 0.0
-8.118549 29.72205 12.6208 0.0
-14.83205 36.08815 -67.054802 1.0
-8.90017 31.121006 54.60038 0.0
-11.5264 27.804399 14.3803 0.0
-4.3094 18.707199 2.285 3.0
2.14935 48.516899 100.09075 0.0
-7.8553 29.991699 10.0879 0.0
3.5972 3.6454 27.014601 3.0
-3.3418 16.184551 7.3256 3.0
2.83555 33.823799 76.894348 0.0
-28.097567 38.947636 -48.285736 2.0
1.3521 19.2729 11.28 3.0
4.595083 0.421633 34.411366 3.0
-10.4916 25.3535 -13.3642 3.0
-0.63025 30.450401 56.733727 0.0
-9.943 29.7439 45.482498 0.0
-1.31464 38.747059 80.928726 0.0
-6.49995 28.89905 -14.9918 3.0
-16.248501 43.220501 -107.0245 1.0
-10.541901 32.367027 -8.4362 0.0
2.161 15.8486 12.089849 3.0
7.867683 -10.581952 44.925201 3.0
-11.303499 24.25415 23.678452 0.0
-11.631475 34.917229 -55.7757 1.0
-6.0561 22.630716 20.891399 0.0
-2.8493 25.074766 -2.075933 3.0
-10.19865 29.9636 9.19765 0.0
-11.8649 30.503134 -12.2981 0.0
20.451668 -15.297466 46.517269 3.0
-5.299233 31.462656 50.724632 0.0
-3.19615 25.8137 35.656052 0.0
17.369036 -24.934637 48.60434 3.0
-11.880539 29.310806 50.616348 0.0
9.711967 -7.289667 40.254131 3.0
-11.6691 37.6087 -62.9561 1.0
3.7494 53.621799 107.0867 0.0
-2.9566 32.6101 62.468498 0.0
6.7249 4.28 25.9338 3.0
-11.3856 31.588499 -12.1946 0.0
-22.898254 40.297173 -49.675785 2.0
-34.097519 42.673801 -40.313381 2.0
23.487499 -13.1706 48.784401 3.0
7.329166 9.677383 22.48435 3.0
-6.186934 28.3197 -13.693067 3.0
-2.041 24.5681 41.770199 0.0
-16.16922 41.05513 -87.948204 1.0
-1.331367 31.232735 60.286701 0.0
-9.6877 33.624847 -27.441151 1.0
-7.3668 22.002199 -4.9488 3.0
-11.1904 29.769899 -20.2759 0.0
-1.905467 31.495367 58.530499 0.0
-7.7133 29.766399 6.7629 0.0
38.914791 -46.905472 48.806122 3.0
10.9779 6.91215 29.067551 3.0
-9.17585 24.910801 11.7632 0.0
-6.092633 28.587284 22.617167 0.0
8.65234 12.338589 22.652321 3.0
-6.8985 31.29859 50.274376 0.0
-36.081959 43.053917 -40.68132 2.0
-7.2413 29.758701 29.488499 0.0
-11.30335 35.56675 -57.381477 1.0
-8.5846 29.811699 20.373867 0.0
-12.9315 41.283401 -95.196602 1.0
-7.88805 30.837 51.029503 0.0
28.440893 -35.366871 49.782116 3.0
-24.937 39.3535 -49.618477 2.0
29.408531 -41.411278 49.883263 3.0
-24.0616 39.609566 -49.705864 2.0
0.9257 27.496965 53.268402 0.0
40.415398 -51.888466 47.166412 3.0
-3.6469 29.575617 48.325031 0.0
1.9166 33.748329 74.909744 0.0
-10.3593 25.964199 9.0928 0.0
-12.9695 41.459999 -89.944801 1.0
-12.2037 32.191601 -19.857599 0.0
-21.653118 33.611134 -56.654984 2.0
20.36528 -33.377625 50.649334 3.0
-7.865975 30.413933 -20.349726 3.0
22.752401 -20.708 48.717834 3.0
-9.229299 31.56955 -12.12495 0.0
-1.97495 27.9758 46.926899 0.0
2.44135 36.93935 84.19915 0.0
3.083833 9.151983 17.856983 3.0
-0.9234 28.505625 50.722027 0.0
-11.2566 32.3255 -39.567799 1.0
-1.599483 8.884883 18.902334 3.0
-16.274799 40.706699 -59.455463 2.0
4.68656 45.691357 94.520798 0.0
-19.155083 38.946667 -59.580086 2.0
-9.2801 25.4135 9.4926 0.0
-8.4452 33.2356 66.058601 0.0
-12.7502 27.934999 50.120602 0.0
-9.7386 32.097603 -32.16045 1.0
-25.114105 41.038212 -44.150135 2.0
-16.0595 40.81485 -84.725052 1.0
7.505375 -0.6405 32.530476 3.0
-11.88385 25.490952 24.6856 0.0
2.4456 32.457298 69.800797 0.0
-11.3882 31.181101 -27.732901 1.0
-7.668889 31.199696 50.391823 0.0
-7.36982 30.612259 35.365532 0.0
37.95499 -43.072437 51.164249 3.0
-13.399166 36.751934 -73.171265 1.0
-30.680716 42.879883 -33.343979 2.0
2.712867 31.4252 65.279167 0.0
7.8449 12.9329 20.628 3.0
-15.1498 42.710602 -99.197205 1.0
36.362541 -43.140644 49.89624 3.0
-4.8384 27.0571 29.8269 0.0
-13.609482 38.088799 -60.612087 1.0
34.370201 -44.1493 49.340698 3.0
-11.977 28.9883 55.546799 0.0
-13.586124 37.829323 -58.816875 1.0
-18.003599 37.0238 -61.448299 2.0
-3.427667 39.666351 83.108391 0.0
-11.17745 26.839699 2.7923 0.0
-10.784566 35.401699 -44.386734 1.0
37.514988 -47.500843 48.507854 3.0
2.7265 1.5 32.505199 3.0
7.660935 7.338579 24.455605 3.0
-3.284312 21.29575 -1.384038 3.0
-15.706201 38.401962 -70.346039 1.0
-4.36575 30.577751 51.431351 0.0
-9.468676 29.634325 25.752048 0.0
-12.6391 39.088722 -67.710678 1.0
34.407368 -43.091721 49.395702 3.0
-28.909599 38.424335 -48.674 2.0
1.141025 28.173901 55.05442 0.0
-16.91995 37.87645 -63.768497 2.0
19.354401 -3.538525 37.69585 3.0
-11.6955 35.421852 -58.826752 1.0
1.05775 5.29725 24.679749 3.0
-11.8805 31.666451 -32.621948 1.0
6.544707 14.406963 17.404173 3.0
13.4053 5.1027 31.611601 3.0
-9.4211 33.307301 -31.384001 1.0
-4.069917 22.419533 -4.092183 3.0
0.088883 42.925522 89.608429 0.0
4.104379 11.416323 17.326025 3.0
-12.4215 28.7183 -23.0471 3.0
-8.4276 29.996799 35.366901 0.0
-0.34385 13.10515 12.372049 3.0
1.5063 31.3923 63.079201 0.0
-11.40879 30.108355 -7.103134 0.0
12.225149 -15.63585 46.047501 3.0
-11.14085 28.97105 7.83705 0.0
-10.101799 24.691349 16.4104 0.0
-34.662918 43.26638 -39.37426 2.0
-9.87755 30.0952 11.07535 0.0
-10.138946 30.087067 46.405933 0.0
3.8482 2.3131 29.438251 3.0
-27.130438 42.047676 -37.631088 2.0
14.88835 -4.058975 36.916649 3.0
-4.8474 20.689651 -3.40355 3.0
-4.0837 14.01745 11.74815 3.0
-10.6784 29.453449 8.59495 0.0
-3.08275 35.86145 71.578644 0.0
-4.1913 14.9311 9.799501 3.0
1.606633 6.517384 22.894901 3.0
-25.694132 40.224957 -46.935894 2.0
-15.197849 37.350998 -67.945755 1.0
-33.099449 39.7318 -46.29015 2.0
-4.37875 34.192024 65.697128 0.0
-1.90305 30.392849 54.28215 0.0
1.1798 46.216599 97.328903 0.0
-16.3276 40.446899 -60.224201 2.0
26.624426 -27.909378 50.37048 3.0
12.623449 -10.709749 42.048149 3.0
-9.1803 25.3571 -13.276 3.0
-12.4868 39.554501 -73.054398 1.0
-0.1894 38.271599 79.432198 0.0
1.1935 12.1251 14.1774 3.0
-24.392357 38.909565 -50.633579 2.0
-9.90275 26.19165 -15.60355 3.0
18.9452 -23.47385 48.180801 3.0
-4.2123 28.7782 40.0993 0.0
-10.59295 35.113983 -42.790634 1.0
30.098068 -38.391571 49.717964 3.0
10.370649 -17.412449 47.806053 3.0
-34.162674 43.211876 -37.406525 2.0
-8.1653 26.0334 -14.2457 3.0
5.4522 6.50515 23.05055 3.0
-4.686367 34.554848 66.931976 0.0
-35.666382 44.157135 -31.060104 2.0
20.291462 -13.091125 45.600578 3.0
4.17205 53.05135 104.6328 0.0
25.055799 -24.698601 49.97435 3.0
-12.7847 35.8368 -43.346802 1.0
32.38871 -38.400822 50.143738 3.0
-16.33375 41.803497 -95.461151 1.0
-0.91425 32.062248 61.20845 0.0
0.0916 38.509769 81.5065 0.0
-4.9473 31.552612 54.633339 0.0
28.925667 -39.108017 49.646397 3.0
16.769501 -14.545 44.542999 3.0
20.340082 -11.663611 45.336948 3.0
-10.4976 30.459499 2.68595 0.0
-12.613926 38.370903 -79.563225 1.0
30.073036 -30.93437 51.686478 3.0
3.849625 7.764375 20.663174 3.0
36.855701 -40.174198 52.560398 3.0
-13.402716 37.234932 -54.495975 1.0
9.389127 -2.174802 33.866119 3.0
-26.399313 34.860836 -53.131973 2.0
-5.0174 26.807701 27.394224 0.0
-12.21375 26.14435 27.830502 0.0
-30.3631 42.189201 -36.811798 2.0
-13.0523 40.797901 -76.693298 1.0
-1.2925 29.996901 54.152699 0.0
-22.800449 42.3297 -45.673027 2.0
-15.644 42.572498 -97.879097 1.0
-2.143817 39.634933 83.405304 0.0
-18.0215 37.863449 -61.713951 2.0
27.925549 -41.327801 50.298698 3.0
32.634422 -41.601177 49.581478 3.0
-5.395431 29.616697 -12.90955 3.0
-3.30745 29.128601 45.788101 0.0
-16.05625 39.5895 -82.603851 1.0
-10.69625 27.823151 -4.327 0.0
31.909286 -40.396423 49.669792 3.0
-2.874183 16.592585 6.381667 3.0
18.911617 -31.418251 50.269234 3.0
-11.5009 30.50975 -21.296801 0.0
-10.2516 26.282101 3.7812 0.0
-19.38895 41.298172 -52.87265 2.0
5.0376 5.0014 24.3731 3.0
-11.576475 34.222351 -31.368752 1.0
-12.263 39.1991 -79.014999 1.0
-7.4742 29.7222 3.7636 0.0
-10.84815 29.371849 -14.58485 0.0
-10.9843 29.6548 -24.9018 3.0
-13.337049 39.9095 -94.769501 1.0
-0.168 14.7353 10.9033 3.0
-25.645775 38.150383 -50.133648 2.0
-0.9201 35.075127 71.435776 0.0
-11.175289 28.569077 16.659834 0.0
7.091233 10.304367 21.892767 3.0
-6.09965 30.903049 49.840752 0.0
-14.7916 37.644699 -76.768501 1.0
2.614442 46.076611 94.884789 0.0
4.3957 42.1623 90.497498 0.0
-11.2909 29.315332 44.680798 0.0
-13.5858 34.703999 -49.650166 1.0
-11.844851 28.064274 -0.669875 0.0
-6.975 30.013 34.2855 0.0
-0.48374 28.285379 52.277599 0.0
-6.40585 24.863876 -12.982599 3.0
0.1882 21.804399 8.0121 3.0
-12.8931 33.803699 -47.327702 1.0
-13.4086 41.686798 -89.366402 1.0
-11.8107 36.070499 -62.4842 1.0
-8.311251 34.602852 -25.302851 1.0
-26.777599 37.991798 -49.733002 2.0
-13.2149 43.182701 -100.1536 1.0
-4.3169 18.180901 2.77 3.0
-4.9905 37.9627 79.881104 0.0
1.630627 42.688766 89.621582 0.0
-11.7407 28.151649 -20.89415 3.0
-10.967649 30.4667 -3.54455 0.0
-29.720861 35.47506 -51.721855 2.0
-4.085999 34.501762 68.347321 0.0
16.889492 -28.602947 49.480255 3.0
0.708467 45.717865 96.914032 0.0
18.631725 -10.921746 43.524414 3.0
-11.535749 26.2859 18.89625 0.0
14.334945 -0.387078 34.314335 3.0
1.37665 36.297302 78.699448 0.0
-4.653367 31.557566 52.892063 0.0
-14.8038 37.070999 -58.766102 1.0
-2.467533 35.054867 70.703064 0.0
-12.613939 32.656273 -31.622231 1.0
13.8738 -19.080175 47.274826 3.0
-6.302 24.515049 18.548401 0.0
-4.4002 27.317801 32.7188 0.0
-11.331825 31.4559 -10.352226 0.0
21.854483 -14.064835 47.376133 3.0
-6.4798 29.44875 33.26545 0.0
-35.860863 41.88195 -42.414787 2.0
-13.303451 40.3815 -66.278427 1.0
33.462566 -36.089535 52.063869 3.0
-14.1166 38.545799 -64.131104 1.0
-10.9295 31.4575 -25.6978 1.0
-29.594742 41.884022 -36.91275 2.0
-8.0227 30.4359 -3.7966 0.0
15.1514 -16.363548 45.2747 3.0
-29.643061 34.720024 -52.320221 2.0
-7.099167 31.269035 54.369606 0.0
2.6327 10.0144 17.6138 3.0
22.698034 -16.116034 48.347767 3.0
-9.8307 23.514299 22.0172 0.0
-13.119699 27.5301 47.67765 0.0
2.9527 52.943298 105.537 0.0
-5.5518 30.36965 46.3442 0.0
-6.882825 30.736475 39.167473 0.0
-5.6791 33.502449 63.573601 0.0
-21.085154 37.352528 -56.421799 2.0
-15.4834 42.328999 -95.3806 1.0
7.114584 8.367467 23.180992 3.0
-1.351625 40.441277 83.47155 0.0
2.903903 17.291332 12.180502 3.0
-8.0699 30.7596 45.003101 0.0
18.137625 -18.165451 46.611076 3.0
2.629192 40.636711 88.128235 0.0
-5.7527 31.0602 -15.8841 3.0
33.374794 -34.78157 52.8517 3.0
-11.6045 31.3181 -19.697624 0.0
0.5849 25.829449 49.09795 0.0
3.598856 2.307 30.588289 3.0
-2.2896 33.05257 64.870399 0.0
-3.109325 30.691277 55.076572 0.0
-5.5749 23.330999 22.3904 0.0
18.967199 -18.183701 46.577599 3.0
-6.642878 26.89189 -14.621966 3.0
-8.624675 30.33465 16.844849 0.0
-11.161176 28.655575 11.9814 0.0
-3.630125 31.087898 55.891624 0.0
1.961113 35.669849 80.571243 0.0
36.69825 -42.086731 50.812496 3.0
0.155 38.0261 80.690826 0.0
-11.8506 29.474899 -3.1631 0.0
-10.2994 34.280998 -35.811401 1.0
-11.2562 25.0821 -12.7459 3.0
2.531525 33.900345 78.404419 0.0
-16.023201 40.315552 -83.430603 1.0
-10.0545 30.073235 43.146099 0.0
-8.352625 27.851 -20.923599 3.0
1.2763 3.6865 27.834101 3.0
-18.697599 33.871899 -59.2812 2.0
-9.609125 29.875423 39.900337 0.0
-2.2356 25.5847 42.564701 0.0
-25.115223 36.395149 -52.441673 2.0
-28.1264 41.379601 -40.898251 2.0
-15.377795 38.422352 -79.901939 1.0
-11.093519 28.67622 20.06358 0.0
-4.612643 35.11869 69.340332 0.0
8.8384 -10.076 44.0028 3.0
-9.9361 31.221699 -2.17335 0.0
-11.693133 30.276484 -15.092533 0.0
20.649374 -12.390912 45.594299 3.0
-6.30085 30.492399 39.689301 0.0
-1.9307 6.60715 22.822899 3.0
8.70698 10.393108 24.276188 3.0
-13.5374 35.394199 -59.617001 1.0
0.890733 32.129536 66.859703 0.0
-18.137367 39.703835 -58.972332 2.0
1.8256 35.715698 78.593597 0.0
40.524792 -48.480976 48.244884 3.0
10.164 9.5003 27.2068 3.0
34.595581 -45.301514 49.173454 3.0
-10.562734 30.299166 0.243567 0.0
-6.7085 30.713501 47.969299 0.0
20.15885 -8.1702 43.116199 3.0
-2.5622 7.7085 20.9135 3.0
36.908104 -49.623158 48.325424 3.0
-18.713333 41.166435 -54.312 2.0
-4.0578 26.250401 -6.0975 3.0
2.106 39.090302 84.430649 0.0
-14.3008 39.751999 -69.648102 1.0
-12.02265 24.622 26.131649 0.0
-11.92395 33.6241 -48.595047 1.0
6.5983 3.2414 26.399599 3.0
-2.2835 41.053497 85.556046 0.0
13.97565 -6.16895 38.050999 3.0
37.568268 -42.244957 51.4394 3.0
30.906654 -32.14967 51.826172 3.0
-12.392182 27.158033 32.64809 0.0
-0.608863 27.141533 49.366047 0.0
-8.614451 30.294125 15.60965 0.0
-14.859 41.260201 -61.744701 2.0
4.629484 44.814953 92.893639 0.0
9.641175 -4.01655 35.964287 3.0
-2.60015 19.710575 1.086175 3.0
40.695801 -49.119152 47.947594 3.0
-12.5265 37.509201 -73.460396 1.0
-13.7345 42.131599 -95.985802 1.0
-33.0574 42.716301 -37.448349 2.0
5.102456 16.341574 14.5913 3.0
-36.702549 44.01825 -38.040352 2.0
-5.05835 22.20355 -5.81565 3.0
-13.326657 27.596184 45.621216 0.0
39.303352 -49.152351 47.977699 3.0
-6.635483 24.734268 -11.617116 3.0
-10.0951 33.9156 -36.942001 1.0
-5.29965 35.836399 72.522598 0.0
-3.095067 13.483601 12.072499 3.0
28.272898 -33.331566 49.987232 3.0
4.2233 40.979198 90.372803 0.0
-4.13265 21.924049 -4.7369 3.0
-19.307899 34.9002 -58.606998 2.0
-12.262899 28.449902 42.256248 0.0
-5.67895 24.068249 -9.51135 3.0
-11.5554 30.6945 61.885399 0.0
19.411034 -16.138374 45.897175 3.0
-9.0894 30.747999 -0.589 0.0
13.5527 -7.8175 38.452099 3.0
-12.5759 28.377617 52.610683 0.0
-11.10285 37.098251 -59.625099 1.0
2.292317 34.601952 77.519653 0.0
-9.6903 30.716734 54.127701 0.0
0.09955 34.474503 71.291901 0.0
0.3983 33.1982 69.7771 0.0
-10.100019 31.31748 56.753418 0.0
-0.7136 16.927999 6.8018 3.0
-11.88165 27.317348 -18.66 3.0
-11.558725 37.12291 -57.804291 1.0
-2.1982 24.295401 35.131699 0.0
-14.3386 37.54295 -78.066605 1.0
-4.5315 28.2953 -9.4624 3.0
-0.95645 26.563202 47.135086 0.0
-12.4534 42.181801 -96.669998 1.0
-4.358125 10.853926 16.09355 3.0
-24.675016 40.11422 -47.400238 2.0
13.408089 -17.84425 46.866798 3.0
-12.17325 38.924698 -76.819199 1.0
-15.639317 38.6539 -77.892334 1.0
-11.2633 30.1649 57.993198 0.0
-15.4546 39.704601 -64.088097 2.0
-10.103225 31.95015 -12.15785 0.0
28.309153 -25.633947 52.172333 3.0
-12.2391 32.525501 -38.9655 1.0
-10.0038 34.7216 -40.704399 1.0
-34.7295 37.639648 -48.181 2.0
-6.36935 27.89045 14.8591 0.0
-9.09945 31.062601 -5.0786 0.0
-22.29245 36.27985 -55.100552 2.0
17.505051 -8.326516 41.3288 3.0
33.947296 -38.083111 51.175808 3.0
25.385176 -28.7202 49.585953 3.0
5.585938 9.705487 20.478275 3.0
16.356129 -19.64325 47.137314 3.0
-0.901433 30.719732 58.526669 0.0
13.270791 -14.634158 45.057407 3.0
28.23365 -42.299652 50.63895 3.0
1.389 2.87055 30.103149 3.0
-36.830498 41.980049 -43.025051 2.0
0.10705 39.50835 83.219254 0.0
-18.71545 38.969849 -60.2006 2.0
-12.171721 28.086571 36.912563 0.0
-33.891701 43.356937 -32.861248 2.0
1.6501 9.709583 17.420834 3.0
8.95965 11.60855 24.026199 3.0
16.010401 -23.847401 48.524899 3.0
-33.138863 42.948574 -33.918438 2.0
3.353962 46.396381 95.216522 0.0
4.2717 43.275799 91.267097 0.0
15.860025 -10.3442 41.272713 3.0
-9.4545 23.9389 17.768999 0.0
-5.0267 28.6308 34.545898 0.0
3.5796 40.882198 88.686203 0.0
0.8942 46.570801 98.639099 0.0
-2.155433 22.082666 2.0785 3.0
-1.275433 17.9172 7.039667 3.0
0.8948 34.911652 75.936707 0.0
-11.945034 33.477135 -26.2995 1.0
6.086266 5.547467 24.103365 3.0
-12.609225 36.158165 -45.640888 1.0
-11.500366 33.274998 -22.346167 1.0
-7.7879 29.306999 0.8829 0.0
-2.53278 23.919159 33.313862 0.0
-5.722 28.697001 28.236799 0.0
2.4972 37.374802 83.521896 0.0
-5.6971 15.6635 9.198 3.0
-9.0894 29.9228 -23.9732 3.0
12.8111 -17.2353 46.767601 3.0
-11.102375 27.6684 4.629125 0.0
-15.7239 40.417999 -76.521599 1.0
-7.7286 18.2279 4.2234 3.0
-9.1497 23.104099 -7.6406 3.0
-0.403 35.7616 75.342796 0.0
0.06365 25.32515 47.82225 0.0
-10.7261 24.935101 17.1084 0.0
-13.85435 41.831902 -87.784302 1.0
-5.3591 34.977001 69.655998 0.0
14.273675 -17.0781 46.17675 3.0
-11.287117 29.594601 48.168842 0.0
33.097466 -42.320015 49.492313 3.0
-11.7243 26.8473 23.258499 0.0
-12.5233 27.877451 43.887497 0.0
-10.6428 27.358101 -1.1017 0.0
-3.122533 37.926197 79.148102 0.0
-10.087334 29.5912 19.544518 0.0
-27.864363 40.815739 -43.348351 2.0
-13.2659 34.454533 -50.486435 1.0
32.325203 -44.145248 49.5602 3.0
-7.506401 29.630499 24.077866 0.0
31.433878 -34.617229 51.086109 3.0
-11.0124 30.309 -15.1905 0.0
-13.9897 41.109501 -63.975101 1.0
-11.3126 24.975599 20.920601 0.0
2.4944 50.153702 102.7389 0.0
-0.20285 16.86735 7.673625 3.0
-25.702299 39.2304 -48.691601 2.0
15.0633 -11.9633 42.445 3.0
7.699425 2.57935 27.87785 3.0
-7.37667 29.587919 24.8908 0.0
-9.090549 30.5609 7.28505 0.0
-1.733783 23.385395 1.915546 3.0
7.1602 13.8129 19.6138 3.0
17.365004 -20.616179 47.3251 3.0
5.91605 0.43685 31.98085 3.0
-31.33395 37.512703 -49.657951 2.0
-13.3087 41.718201 -92.695297 1.0
-11.261533 29.921865 -16.303801 0.0
-35.295799 43.819199 -33.890999 2.0
25.45565 -20.518524 50.554974 3.0
3.202825 33.530724 75.930832 0.0
-3.111633 29.820417 50.676998 0.0
-12.1923 39.255901 -77.989197 1.0
-4.898 35.427399 70.816452 0.0
-9.32395 31.555901 -10.3536 0.0
-2.0671 30.97925 58.075352 0.0
-12.877683 38.342815 -81.844521 1.0
3.84275 10.117775 18.113049 3.0
-32.513466 36.096767 -50.251736 2.0
-31.689049 42.123699 -40.095947 2.0
-1.32305 33.285248 66.841644 0.0
-10.602036 34.838955 -39.822498 1.0
-17.613575 39.538799 -60.350998 2.0
25.150999 -23.299192 50.178009 3.0
-1.624325 37.484951 76.625397 0.0
-4.37025 20.550724 -2.106575 3.0
-8.371762 27.552689 -18.6276 3.0
-7.10915 31.151299 53.611599 0.0
-29.318775 40.165924 -45.586678 2.0
-9.30855 22.662449 -6.3182 3.0
9.8007 9.7693 26.503201 3.0
17.648399 -27.0296 49.151199 3.0
15.374025 1.0378 34.065399 3.0
3.3514 43.542702 90.908348 0.0
22.406607 -24.688511 48.853497 3.0
-11.7419 32.431801 -21.3923 1.0
-12.11 33.658951 -28.495548 1.0
-2.72654 24.10614 -1.2594 3.0
4.361175 1.854225 29.65275 3.0
-11.70425 37.715851 -67.122345 1.0
-11.1649 28.9769 42.937302 0.0
-11.528834 24.4694 24.290068 0.0
36.994099 -41.194698 51.857601 3.0
-11.57 32.338501 -41.408798 1.0
1.67835 32.953899 69.94545 0.0
-12.7467 36.5219 -47.493198 1.0
-3.6086 10.5946 16.582666 3.0
-5.87505 35.40065 71.595703 0.0
-3.45252 22.359529 -2.171953 3.0
-13.3384 40.888199 -81.392349 1.0
-11.69495 35.6096 -41.874802 1.0
-31.093769 41.704964 -40.385048 2.0
-38.643776 42.615574 -42.856026 2.0
-4.7447 11.1915 17.1908 3.0
-8.366111 30.110306 32.349125 0.0
18.928961 -22.081141 47.886299 3.0
-4.141475 19.658924 -1.160675 3.0
-14.694725 37.290001 -73.393677 1.0
-9.624325 31.5942 -8.9381 0.0
3.303467 47.103268 95.491493 0.0
-5.7139 28.087099 25.727501 0.0
-1.8742 37.606598 78.100899 0.0
-11.5399 27.77475 20.358749 0.0
23.1735 -34.602634 50.424519 3.0
-6.432825 32.971848 62.768578 0.0
-11.279699 31.526951 -9.44695 0.0
-2.67555 25.7178 -2.5152 3.0
17.03825 -6.21905 39.504749 3.0
-14.9134 43.268902 -103.9533 1.0
-10.2139 27.0494 -0.3467 0.0
-22.875351 39.171852 -53.426651 2.0
-12.471849 35.247601 -39.325253 1.0
-10.494261 29.733921 41.48624 0.0
-11.11805 34.289001 -31.912201 1.0
-23.21175 35.954453 -54.248047 2.0
1.885849 40.928631 87.334496 0.0
-4.063125 23.074375 -4.289825 3.0
1.6601 11.0099 15.6128 3.0
-11.7685 37.848598 -68.783302 1.0
30.071749 -40.255875 49.720001 3.0
-5.4512 21.0021 -2.206 3.0
-12.2851 27.7099 39.709202 0.0
-6.6406 21.9105 -4.8871 3.0
-11.2019 28.6401 -7.35265 0.0
-14.62437 37.153416 -72.626045 1.0
-11.4168 28.968399 -8.1107 0.0
-5.84745 29.417 37.886322 0.0
-13.8576 39.363201 -93.614655 1.0
-3.65661 32.312149 58.636181 0.0
0.48606 32.473042 67.303116 0.0
-13.1566 39.744034 -70.479866 1.0
16.836355 -3.604911 37.220646 3.0
1.8875 30.2465 58.486599 0.0
2.6126 31.45845 62.410477 0.0
1.0451 31.829679 65.098251 0.0
-6.3527 29.213301 25.000099 0.0
-14.9689 38.5966 -89.325302 1.0
1.589411 33.315353 72.613625 0.0
-22.964001 39.164902 -51.877201 2.0
8.410556 9.320069 24.324461 3.0
-3.2014 17.887199 2.4328 3.0
-11.4622 35.4212 -38.706699 1.0
-10.150499 25.042925 14.139875 0.0
19.625401 -20.511999 47.599998 3.0
29.152967 -33.734867 50.220734 3.0
-11.4334 35.896248 -43.167198 1.0
-0.416556 42.044743 87.837952 0.0
-12.4136 37.405102 -72.359802 1.0
6.65695 14.925438 16.88385 3.0
-27.895382 40.820301 -42.323982 2.0
17.887199 -10.673934 42.8158 3.0
22.097401 -23.602234 48.635147 3.0
-8.1696 20.886299 -2.2544 3.0
17.696733 -29.7027 49.800369 3.0
5.3259 44.9049 93.196503 0.0
-11.613999 33.696114 -27.581287 1.0
-1.25695 32.69775 63.736801 0.0
-0.55645 19.659901 5.6816 3.0
-11.627817 28.165249 26.955235 0.0
-8.089932 32.666733 64.533966 0.0
-39.877197 43.793152 -39.09745 2.0
-11.253 30.884199 -8.3349 0.0
-6.48715 28.618351 15.10295 0.0
18.6915 -4.8296 38.562901 3.0
20.874399 -31.060699 49.9431 3.0
6.622456 4.307089 25.169016 3.0
-11.443799 28.310776 -3.297225 0.0
-5.1329 14.5796 10.8347 3.0
-9.8284 29.802601 15.2876 0.0
-1.06275 31.92625 62.654301 0.0
-13.617267 38.203999 -61.56427 1.0
-11.30665 32.087749 -13.411551 0.0
-4.868314 34.927959 68.615929 0.0
-8.9075 30.48955 5.7171 0.0
-16.272699 41.131401 -89.121552 1.0
0.6268 14.101351 10.514799 3.0
-23.08555 38.261101 -53.043449 2.0
-7.1352 34.18335 70.259453 0.0
-4.0869 31.574333 56.562695 0.0
-34.832367 43.818066 -32.061268 2.0
-11.920616 30.353184 -9.421017 0.0
-0.726767 31.027534 59.724384 0.0
-8.352875 30.026226 29.677174 0.0
-4.787275 24.597475 24.856899 0.0
-34.055401 43.3797 -34.282398 2.0
-21.975201 42.313 -47.6054 2.0
20.408161 -26.12175 48.82579 3.0
-4.1769 31.080999 52.271801 0.0
-16.54505 41.371399 -98.547348 1.0
7.626578 5.172116 25.894878 3.0
7.676899 -3.612867 37.6026 3.0
-39.697018 44.039307 -37.358826 2.0
6.3908 -2.949 39.845253 3.0
-10.273092 34.15461 -34.593956 1.0
-13.90135 37.027599 -54.0485 1.0
-12.2121 26.1509 23.643999 0.0
2.8803 40.097301 87.071198 0.0
-9.2759 34.334702 -26.2444 1.0
-12.6106 35.0252 -59.821201 1.0
-4.633844 37.073963 77.641121 0.0
12.802737 4.105975 31.621937 3.0
-1.0847 39.452225 81.141579 0.0
2.29425 45.500954 93.169998 0.0
4.34045 1.469325 30.668724 3.0
9.541825 -5.148875 37.581848 3.0
-22.040001 39.007301 -53.7686 2.0
1.2766 38.5243 81.955101 0.0
27.891659 -40.081219 49.903038 3.0
13.09375 -9.8657 41.277023 3.0
-1.86515 35.184097 70.4039 0.0
-22.7479 41.486401 -48.154701 2.0
-2.9855 32.0233 59.110802 0.0
-12.133126 38.330116 -65.819511 1.0
-18.9461 39.974499 -56.1702 2.0
3.4751 53.63747 108.30048 0.0
-26.684134 41.457249 -40.285282 2.0
-0.09465 41.947052 86.478104 0.0
-12.0007 30.6994 -10.0128 0.0
-4.5162 23.069099 -5.457 3.0
3.135396 11.320075 16.396532 3.0
-12.886101 33.59005 -32.707253 1.0
0.6702 34.022099 71.150902 0.0
2.617948 32.105644 70.903687 0.0
-2.752 32.983299 63.984501 0.0
-5.3041 33.275875 64.139175 0.0
-31.6098 42.31115 -37.941727 2.0
-2.0889 12.182134 13.888934 3.0
10.6195 -8.1055 39.747601 3.0
-11.5536 37.2705 -64.484001 1.0
-5.8224 27.674 23.0422 0.0
-9.112134 30.127884 19.865034 0.0
-8.095612 29.931814 25.914751 0.0
7.6728 0.7116 30.121401 3.0
-10.95315 29.975601 -18.7171 0.0
-11.2636 31.618299 -33.1008 1.0
19.631012 -22.165501 47.989887 3.0
-5.53525 24.696699 21.547699 0.0
16.70015 -7.8185 40.2188 3.0
-0.132373 27.111795 50.355251 0.0
-30.35005 41.842422 -38.036278 2.0
-0.0047 21.256399 6.7922 3.0
-9.550601 32.63269 -28.370834 1.0
27.898201 -31.885798 50.123234 3.0
-20.847441 43.174923 -47.915863 2.0
-24.116623 36.394634 -53.104607 2.0
-10.874701 35.637951 -46.5182 1.0
17.326733 -4.596008 38.12175 3.0
1.649495 13.629668 12.908131 3.0
4.600717 3.863067 26.683119 3.0
-13.1371 36.045849 -66.154701 1.0
38.088673 -49.91605 48.042351 3.0
-11.17675 28.469601 13.9397 0.0
-12.0629 38.523499 -73.234398 1.0
-10.5309 29.52895 38.167702 0.0
-11.126699 29.1882 38.595249 0.0
6.056 2.4663 28.228901 3.0
-1.54 35.406101 71.501602 0.0
-10.63745 34.039227 -30.842649 1.0
-30.59141 35.326324 -51.568806 2.0
-12.949475 28.343723 50.621624 0.0
-14.3275 40.005901 -71.3536 1.0
-7.371 29.6026 14.891 0.0
-20.568649 42.449852 -50.118198 2.0
-5.91525 19.53335 0.6241 3.0
-13.5026 25.502701 36.355499 0.0
-9.0853 30.065849 22.472801 0.0
-9.1911 24.8412 -11.9138 3.0
4.107 43.693218 92.288116 0.0
-12.97245 26.65785 35.910999 0.0
-13.4316 40.038399 -67.123596 1.0
-11.3204 28.3937 34.712101 0.0
-11.5743 30.0502 -19.1152 0.0
-13.6241 27.902901 49.622601 0.0
20.932926 -5.92695 41.342075 3.0
31.44311 -29.643471 53.332676 3.0
-34.953701 44.013401 -31.072201 2.0
-11.4275 29.9592 56.863899 0.0
6.7322 -3.0489 38.229599 3.0
-37.9034 44.638977 -35.082874 2.0
22.290051 -17.7484 48.262299 3.0
35.583626 -44.557476 49.190701 3.0
-9.9386 31.897301 -33.0667 1.0
1.414017 38.133518 83.113731 0.0
-6.07091 33.61837 64.819359 0.0
-10.3312 23.269249 25.125401 0.0
-13.3364 41.831749 -94.407455 1.0
-33.87059 43.370625 -31.813299 2.0
1.703967 45.701401 94.093025 0.0
2.5808 39.002701 86.430397 0.0
2.36135 34.540649 79.647499 0.0
0.39865 38.096283 79.914383 0.0
-0.231533 21.284933 5.321033 3.0
0.087733 33.5704 70.352333 0.0
8.6926 2.9144 28.526249 3.0
-29.924402 42.416077 -35.524776 2.0
-2.099533 34.322865 67.085938 0.0
10.332878 -1.619669 32.871941 3.0
25.393133 -30.38546 49.665581 3.0
-11.85055 38.06665 -69.73835 1.0
-39.973301 44.424999 -35.8923 2.0
0.346783 14.13195 9.9009 3.0
-6.3789 24.157351 -10.441575 3.0
-14.4408 36.479 -57.895802 1.0
-2.67795 26.283051 -3.50245 3.0
15.712299 -16.7934 45.497799 3.0
-7.391225 30.570526 33.103127 0.0
8.7485 8.8323 25.2575 3.0
23.1717 -15.6591 48.4925 3.0
9.117216 -9.605049 43.306648 3.0
-9.928 30.762451 5.1567 0.0
-3.9339 17.2479 5.2113 3.0
31.840187 -33.595406 51.911884 3.0
-3.3036 40.574051 86.046097 0.0
1.659122 1.845122 32.369534 3.0
1.102575 30.101749 58.681576 0.0
-6.0597 29.9485 40.382301 0.0
8.903075 1.1528 29.977325 3.0
26.914724 -24.326046 51.303391 3.0
-14.486 41.949402 -91.246101 1.0
-12.107201 29.663799 55.917252 0.0
-13.2879 29.29285 -23.619576 3.0
-9.0247 26.510599 2.0206 0.0
-4.111467 35.086334 70.514168 0.0
-13.0283 33.642101 -42.628201 1.0
3.145467 16.279634 13.073667 3.0
-9.7528 25.2006 12.1 0.0
11.38655 -10.596 42.623997 3.0
-12.4061 39.418327 -82.859222 1.0
-12.4201 25.5299 25.9935 0.0
1.776 3.0435 29.105 3.0
9.795966 7.644222 27.108055 3.0
26.426029 -23.112135 51.103165 3.0
-27.7129 40.150051 -46.585152 2.0
-8.073049 23.535599 -8.30015 3.0
33.153625 -39.6497 50.024426 3.0
20.314548 -6.8298 41.914101 3.0
24.454981 -24.460638 49.738537 3.0
-17.692883 41.400185 -54.361214 2.0
-5.2407 21.253849 -4.70875 3.0
-11.93515 36.1395 -63.727001 1.0
-3.12375 40.098503 83.736603 0.0
-15.371766 37.860203 -70.131233 1.0
9.8123 -1.0141 32.112499 3.0
3.2166 47.782299 96.718597 0.0
-1.407725 30.131836 56.134411 0.0
2.70836 41.714882 89.307816 0.0
-2.11887 24.388674 37.609016 0.0
24.114204 -32.836426 49.935532 3.0
-25.594952 38.922752 -49.332825 2.0
-12.126567 27.391832 27.341835 0.0
3.83355 13.4879 15.35925 3.0
-9.36295 31.615162 -28.350674 1.0
-11.7301 31.387199 -28.3904 1.0
-10.892067 29.278399 46.307999 0.0
-12.1041 32.742599 -41.882248 1.0
-8.4452 30.578999 -5.88665 0.0
-37.10952 40.860504 -44.618031 2.0
-1.8277 23.326134 2.611566 3.0
12.6964 -18.484081 47.393501 3.0
9.184809 8.1265 25.911734 3.0
-5.1658 27.3004 27.92285 0.0
-5.1185 37.762531 81.346703 0.0
-15.897201 42.734436 -100.914 1.0
-10.3001 25.626751 11.3274 0.0
-11.3416 30.9681 -31.768299 1.0
24.295275 -28.065174 49.459747 3.0
35.0494 -49.285198 49.170898 3.0
-1.19065 19.115849 4.7276 3.0
2.9315 52.4506 105.0828 0.0
-39.1073 44.835205 -32.954086 2.0
-13.832875 42.158901 -93.091843 1.0
-4.9664 29.3927 -11.7356 3.0
-5.9041 18.5308 3.3598 3.0
-9.3072 29.718599 37.7117 0.0
-6.644756 31.772223 57.810734 0.0
-2.543425 24.893761 35.380478 0.0
-7.657267 18.648735 3.319667 3.0
-15.27165 41.670052 -87.255096 1.0
-11.320517 30.558968 59.414284 0.0
-3.25755 24.477474 31.277702 0.0
-3.0664 30.294498 53.105152 0.0
-13.095 37.0028 -51.401001 1.0
-2.6707 38.232136 79.822563 0.0
5.355367 3.289358 27.616018 3.0
0.0908 4.61815 26.642899 3.0
30.846802 -45.593975 50.616364 3.0
-6.587 25.158001 16.808201 0.0
-4.2906 19.77235 -0.26505 3.0
5.1801 8.8538 20.903 3.0
-9.298 29.8848 17.146999 0.0
-5.2006 35.627998 71.734398 0.0
-7.5527 21.135551 -2.82725 3.0
-18.509548 41.6297 -53.399975 2.0
3.9225 14.6955 14.8028 3.0
-1.033867 20.881517 4.389067 3.0
-21.596951 38.3405 -55.266647 2.0
-12.2507 34.756401 -57.713501 1.0
-15.0721 40.6124 -78.0756 1.0
25.900267 -18.328766 50.670437 3.0
-9.1528 25.014601 10.919 0.0
8.462749 -2.81765 34.3008 3.0
-2.606967 18.115368 3.295133 3.0
-0.3003 36.152298 76.356552 0.0
-4.2817 38.052299 78.728104 0.0
-9.906533 29.81955 31.102551 0.0
-16.464199 42.470699 -102.2634 1.0
-5.7725 28.054226 23.870575 0.0
-10.3366 29.463499 -16.577101 0.0
-5.335 29.627199 42.520199 0.0
27.129217 -40.157101 50.201794 3.0
-15.9636 42.990601 -103.5143 1.0
-16.6919 40.934601 -56.842003 2.0
-12.529975 28.557625 45.445099 0.0
-15.129165 39.215546 -66.616455 1.0
-28.281013 41.817623 -37.408638 2.0
-35.915802 39.439651 -46.228447 2.0
1.5148 16.120625 10.925474 3.0
-30.8979 35.9478 -51.270447 2.0
-15.162149 37.391502 -68.873047 1.0
-3.386923 35.353973 69.916504 0.0
6.492059 10.907891 20.598251 3.0
-13.1071 39.3368 -67.2202 1.0
-12.436153 37.084606 -53.39386 1.0
-4.38725 27.589802 35.189796 0.0
-10.644726 29.313776 12.918537 0.0
-13.4597 38.751549 -65.450653 1.0
1.8385 47.33075 97.867447 0.0
-2.6231 25.1842 37.3386 0.0
-7.5714 30.372849 28.153099 0.0
6.0351 -2.0273 37.917099 3.0
-11.668751 29.094601 51.6646 0.0
37.9972 -50.928101 48.2323 3.0
-5.101267 30.841499 50.469635 0.0
-9.5986 29.5991 37.123299 0.0
-24.080849 40.211601 -48.947098 2.0
-7.383904 30.359623 40.319946 0.0
-9.9147 24.817301 8.4203 0.0
-22.377462 42.442398 -46.281029 2.0
-8.4003 31.499701 56.399601 0.0
-33.481865 40.315735 -45.500732 2.0
-9.67805 30.2206 47.696503 0.0
-13.716801 43.102451 -101.4301 1.0
-4.607013 29.126463 -10.660574 3.0
-28.90695 41.092552 -42.651627 2.0
-11.2785 30.4454 -26.5184 1.0
-7.8631 26.558599 -17.611 3.0
6.843966 12.285116 19.924383 3.0
-4.9727 26.3197 26.101898 0.0
5.6054 -1.188 35.384899 3.0
-14.63302 42.145779 -92.640289 1.0
27.143457 -26.865934 50.95929 3.0
-6.9295 25.0919 -13.9793 3.0
-2.9079 27.844349 43.941452 0.0
-12.222401 38.188202 -74.636856 1.0
-8.7169 32.385498 64.041351 0.0
-8.1657 30.562 -7.1944 0.0
-10.433849 26.340876 6.351425 0.0
-5.428572 33.856964 66.597275 0.0
1.509425 7.74115 20.934725 3.0
-7.285725 26.0396 -14.628725 3.0
-6.5981 22.704901 -6.43205 3.0
-30.127131 40.0355 -45.320831 2.0
-2.39955 38.286324 78.228928 0.0
-9.8927 25.8064 -14.6543 3.0
-10.115499 33.121002 -27.5205 1.0
-6.4928 29.52145 30.49015 0.0
-11.299524 36.208675 -49.360275 1.0
-10.4917 28.422001 -8.6417 0.0
24.846863 -27.098568 49.645454 3.0
-3.61629 35.478935 71.686646 0.0
-2.2999 39.318897 81.427063 0.0
-4.6717 10.2256 16.143801 3.0
3.0287 39.062401 87.379097 0.0
-3.0143 32.247601 61.2104 0.0
-6.07065 32.176552 56.41045 0.0
-8.86747 33.846809 -25.40451 1.0
20.360144 -17.90901 47.140209 3.0
3.635873 53.703575 106.38826 0.0
-37.699467 44.52755 -35.814663 2.0
10.437734 -2.349267 33.654781 3.0
4.478909 48.273941 96.871857 0.0
-13.4078 42.488998 -103.7827 1.0
-14.9348 39.123299 -92.694298 1.0
1.2676 35.282551 77.662552 0.0
21.708799 -7.8518 44.265701 3.0
-34.696999 38.3316 -47.8992 2.0
-12.694013 28.381599 46.12722 0.0
-13.373924 40.1483 -73.842873 1.0
-1.9049 23.6898 39.584702 0.0
14.291833 -9.829166 40.846867 3.0
-21.12715 40.9118 -51.330498 2.0
-8.601231 29.861702 23.677683 0.0
-4.1892 23.34095 27.12645 0.0
-13.62355 38.121048 -83.312149 1.0
-12.0814 28.046301 41.0228 0.0
14.3161 -12.5321 42.945202 3.0
-12.1729 33.094299 -27.2705 1.0
7.2424 7.5304 23.761 3.0
-35.2994 43.136501 -40.389465 2.0
-13.8871 41.401802 -84.937546 1.0
19.517859 -4.290719 38.653759 3.0
17.346966 -23.540766 48.247532 3.0
33.406471 -37.852448 50.867149 3.0
-6.66 29.3808 23.782801 0.0
-3.2988 23.3529 30.871901 0.0
-25.915762 35.39595 -52.931427 2.0
-2.609217 39.264683 82.832397 0.0
-11.0766 30.431702 54.466797 0.0
-30.542517 39.752316 -46.12915 2.0
-4.34725 28.162649 -8.6793 3.0
-12.362499 32.458252 -30.35265 1.0
-4.30075 29.566151 46.672348 0.0
-19.563601 41.796398 -52.1106 2.0
7.1035 2.4642 28.1465 3.0
21.122818 -12.117634 46.34182 3.0
-1.10645 7.28665 21.4049 3.0
-21.5268 37.134567 -55.731567 2.0
21.379501 -32.901749 50.419083 3.0
-8.6904 31.083799 -9.9352 0.0
10.693645 -4.610675 36.395454 3.0
14.7421 -20.976999 47.892502 3.0
40.267899 -45.920303 49.317947 3.0
8.426145 -5.847945 39.879169 3.0
-0.1484 39.255299 81.198402 0.0
-34.602551 40.7131 -44.873352 2.0
-35.3703 43.167343 -39.635677 2.0
0.299606 41.594193 86.888855 0.0
-3.822883 37.788017 79.322662 0.0
-19.888075 40.131653 -54.641922 2.0
1.5346 41.340199 86.381203 0.0
10.707 9.3907 28.255501 3.0
1.634 4.641 26.3487 3.0
-16.318899 37.299099 -64.716949 2.0
-3.5155 26.088202 -5.7052 3.0
-10.059401 33.684502 -37.778099 1.0
10.873433 0.070033 31.901899 3.0
-2.818173 21.629782 -0.342049 3.0
-1.092 9.570101 17.919849 3.0
-14.4207 40.470699 -64.4879 1.0
-7.881033 31.692667 57.809368 0.0
0.5048 17.650969 8.486401 3.0
-0.690767 32.872334 65.023338 0.0
-10.5971 31.1525 -32.371273 1.0
-11.7284 27.12705 21.19825 0.0
1.839822 15.135951 12.16291 3.0
-11.1294 35.508499 -40.739101 1.0
22.370188 -14.729563 47.92831 3.0
-12.687201 40.624901 -91.032448 1.0
-2.19695 24.92725 -0.2778 3.0
21.718164 -21.709402 48.366398 3.0
13.29493 -16.534916 46.171146 3.0
5.3488 4.3351 25.4139 3.0
-4.1703 26.7129 -7.0288 3.0
-10.7065 29.2591 14.4315 0.0
-4.5387 16.2211 7.8256 3.0
-6.661255 30.792967 43.091091 0.0
-7.0026 29.7117 -17.144199 3.0
-9.626839 30.927698 52.398941 0.0
-32.4548 39.48875 -46.909599 2.0
17.637033 -14.129617 44.337234 3.0
-0.605337 33.064724 65.92218 0.0
-15.3173 43.697601 -107.9907 1.0
-8.106077 30.464064 33.615833 0.0
-5.383 32.82835 59.840199 0.0
-10.8162 29.2733 -23.047501 3.0
0.638725 43.854473 90.371574 0.0
15.717732 -27.875067 49.118866 3.0
-13.360701 39.97715 -72.0131 1.0
-11.2565 29.6535 -1.0007 0.0
-12.295549 25.046749 28.134048 0.0
-6.609484 33.051434 61.961365 0.0
-23.923599 41.745148 -45.122398 2.0
-24.607201 39.463501 -50.9216 2.0
-23.10322 40.596401 -48.684002 2.0
-6.5614 26.107 15.5416 0.0
1.3796 29.283751 56.37685 0.0
-2.091017 33.644638 66.822334 0.0
-14.975 38.903999 -90.867699 1.0
-5.6618 31.68615 53.389648 0.0
-9.109 31.0338 -25.8486 1.0
-8.614374 29.814951 18.3577 0.0
-12.746099 38.73595 -83.1325 1.0
16.647869 -9.359918 41.366867 3.0
-13.562799 27.074001 43.955601 0.0
-11.389017 23.559816 27.407429 0.0
-8.9761 31.267401 -9.1441 0.0
-8.878401 32.258499 59.82275 0.0
-6.2631 29.577499 -15.2008 3.0
-10.647834 33.3992 -26.365835 1.0
0.3274 40.68 84.20015 0.0
3.1599 52.672852 106.128 0.0
-0.2199 20.070166 6.244134 3.0
-11.492299 37.476864 -61.710133 1.0
-19.9186 39.199402 -56.2048 2.0
3.62995 4.34745 25.870602 3.0
-26.080032 36.910564 -51.491333 2.0
-2.92085 16.911549 5.5431 3.0
37.878124 -46.280315 48.959732 3.0
-14.492676 43.690777 -105.88025 1.0
-16.644716 41.135475 -55.402348 2.0
-6.096625 34.199326 68.731247 0.0
-12.9293 26.770201 34.9342 0.0
2.8688 30.270451 60.251099 0.0
-6.2683 27.4667 16.225 0.0
-11.109301 33.187351 -44.0882 1.0
-0.6415 43.634266 92.93927 0.0
-14.2087 36.253399 -52.793499 1.0
-19.6717 39.006302 -58.2925 2.0
-13.097151 33.719452 -41.403549 1.0
-12.4707 39.9156 -84.6847 1.0
34.912613 -37.82851 52.369278 3.0
-8.324699 30.218349 4.3629 0.0
-21.635698 42.875935 -46.882267 2.0
9.63054 6.430118 27.357977 3.0
1.942467 37.380505 82.152489 0.0
-10.121175 32.655949 -37.070648 1.0
-0.8802 43.859299 94.174599 0.0
-2.4104 20.188999 1.4953 3.0
-11.622025 26.718 -16.834724 3.0
-11.921887 23.670446 30.392208 0.0
-13.8465 25.790501 39.621399 0.0
-33.687798 40.820549 -44.805027 2.0
-25.059 40.603401 -45.3633 2.0
-27.097651 37.523701 -50.934151 2.0
-9.506567 30.044466 30.086533 0.0
-11.31585 27.64255 11.75395 0.0
-2.663667 26.882568 41.7356 0.0
-13.95355 35.418701 -54.642647 1.0
-8.127 25.6712 8.9108 0.0
0.1607 3.1824 29.0406 3.0
-10.614901 33.89315 -28.814098 1.0
-27.682383 37.6805 -50.071369 2.0
2.3769 3.7013 27.433399 3.0
-6.87475 32.168201 57.0084 0.0
2.558779 14.70697 13.197289 3.0
-8.690599 33.685402 69.846901 0.0
0.348583 42.393051 88.295418 0.0
-11.2981 25.105 19.450298 0.0
-0.340913 18.115088 7.147625 3.0
-32.335865 40.666302 -45.0578 2.0
-2.47665 28.9102 47.736301 0.0
1.1769 39.968899 83.997498 0.0
30.828268 -35.667545 50.406315 3.0
-36.11235 43.832802 -36.921001 2.0
24.10915 -37.854 50.795349 3.0
-13.86205 42.135448 -95.305695 1.0
19.695402 -14.112065 45.644333 3.0
-6.2732 32.194099 -19.7558 3.0
-2.61045 8.8363 18.688 3.0
12.441401 6.50765 30.7558 3.0
23.301012 -26.086468 49.148846 3.0
-5.904316 35.880466 73.787491 0.0
-11.11345 30.5772 56.440674 0.0
-15.7181 43.5546 -105.87704 1.0
-9.0792 30.221249 26.6719 0.0
1.91604 44.44268 92.34626 0.0
9.254499 -14.107 46.744102 3.0
38.190201 -47.530701 48.5284 3.0
1.11925 31.912577 64.094345 0.0
