# .PCD v0.7 - Point Cloud Data file format
VERSION 0.7
FIELDS x y z label
SIZE 4 4 4 4
TYPE F F F U
COUNT 1 1 1 1
WIDTH 1409
HEIGHT 1
VIEWPOINT 0 0 0 1 0 0 0
POINTS 1409
DATA ascii
-21.211849 -1.6304 16.643501 4.0
-13.320283 17.586649 -66.628166 0.0
-9.316688 7.393138 0.064675 2.0
-60.080952 -6.853 138.77765 4.0
-17.24469 10.69665 -5.515726 4.0
-5.902203 -2.845381 26.346727 2.0
-32.894341 -5.79645 74.356216 4.0
53.871948 -35.710251 -1.5173 0.0
-16.316074 17.895149 -56.564926 3.0
-18.210724 0.0841 6.3824 4.0
-43.557449 -10.416901 90.983101 4.0
-15.3939 29.777451 -101.29208 3.0
-1.89445 -7.587558 43.328842 2.0
-29.472 35.402428 -102.13673 1.0
-17.157349 14.7619 -32.961601 4.0
-16.030687 10.998376 -2.867742 4.0
-41.716301 -10.2062 90.870697 4.0
44.43475 -22.1276 -0.02855 0.0
-10.901179 10.391396 -16.949638 2.0
-38.949917 -11.239391 75.853577 4.0
-49.62484 -12.10465 124.14545 4.0
61.102699 -37.915298 -2.89715 0.0
-16.98041 33.880936 -141.61147 3.0
-23.838486 -11.688583 36.357719 4.0
-18.422958 34.560715 -128.29852 3.0
-19.334084 -8.700199 25.839651 4.0
-29.65365 32.692902 -106.47865 1.0
-12.50805 4.7749 -9.67745 4.0
-13.2803 21.651751 -75.124352 3.0
65.530823 -40.397728 -4.0504 0.0
-46.998974 -16.638557 87.804039 4.0
-15.60225 36.616901 -140.39465 3.0
-15.28985 15.3317 -47.13245 3.0
-44.375614 -10.633533 95.905266 4.0
-39.156551 -10.092899 78.134903 4.0
9.715359 2.816683 -27.726641 0.0
-35.231369 -7.384913 76.939163 4.0
-15.46165 36.420898 -151.16956 3.0
-39.446495 -9.763382 79.282883 4.0
-10.81205 4.3037 -3.17825 2.0
-10.83335 8.1092 -15.07025 2.0
-24.094049 1.2622 22.461451 4.0
-16.539249 39.586403 -161.27936 3.0
-11.16555 10.891434 -21.678816 2.0
-24.396475 -2.546725 27.671801 4.0
-22.621712 1.869724 42.658318 4.0
-21.17515 5.193067 27.137434 4.0
-10.7201 5.93145 -7.5178 2.0
33.469257 -15.386883 -4.341958 0.0
-37.636002 32.326149 -103.88605 1.0
-16.70406 -1.560696 8.234213 4.0
-12.995925 25.879566 -92.433823 3.0
-64.61998 -1.96005 151.36638 4.0
-1.035419 -3.685144 38.56435 2.0
-19.688175 2.7893 2.34555 4.0
31.128426 -6.46895 -8.212675 0.0
-16.394325 37.310753 -162.08229 3.0
-3.523663 13.574463 -49.931477 0.0
-15.784925 35.869179 -134.36462 3.0
-16.862415 38.370514 -149.17743 3.0
-19.414289 8.534815 23.251442 4.0
-18.163807 9.116517 4.958057 4.0
16.526451 4.0578 -17.5422 0.0
-8.841392 4.68795 3.160242 2.0
-36.261749 -11.4365 96.977654 4.0
-26.266376 -13.096849 40.586212 4.0
-34.023849 34.4613 -99.007751 1.0
-12.638484 14.7082 -44.145153 2.0
-31.70705 34.473701 -101.00575 1.0
-19.583851 5.0408 -3.59605 4.0
4.285725 4.187675 -32.893425 0.0
-20.131132 38.858116 -160.3942 3.0
-13.498099 22.865749 -68.05175 3.0
4.62635 10.748 -32.951149 0.0
-33.087875 -6.4622 81.765999 4.0
-17.460251 17.860849 -52.785698 3.0
58.093349 -30.703899 -0.58875 0.0
-25.316563 -4.611363 32.814049 4.0
4.231969 9.792594 -34.010704 0.0
-58.899189 -8.690899 132.08246 4.0
-22.391312 3.056272 9.394889 4.0
-28.005066 28.123116 -111.55307 1.0
-16.889774 32.514374 -117.14615 3.0
0.71425 9.924033 -41.133015 0.0
-13.002763 23.138412 -81.10701 3.0
-13.400017 12.844033 -11.946133 4.0
-21.183897 5.641027 22.96681 4.0
-9.162175 19.040543 -60.720074 0.0
-17.13905 18.92565 -55.464447 3.0
-22.653198 33.4818 -115.63792 1.0
-16.342083 11.922799 -33.166801 4.0
8.44685 8.93455 -29.2253 0.0
29.245018 -8.245408 -8.375524 0.0
-15.492275 32.508614 -131.24429 3.0
-16.607533 25.886051 -85.882133 3.0
-17.05405 8.736401 -20.555401 4.0
6.11315 9.89672 -31.310669 0.0
30.398149 -9.7347 -7.16795 0.0
2.479 -8.449225 50.225327 2.0
-36.19651 -9.744104 91.0522 4.0
-24.997351 0.9313 21.928551 4.0
-19.63665 40.863201 -165.07056 3.0
-30.861557 -5.593277 52.363983 4.0
-8.041099 0.80715 13.35405 2.0
-16.361315 17.299772 -43.034016 4.0
-16.967625 37.10265 -159.87276 3.0
-43.729156 37.03334 -92.203598 1.0
24.778305 -7.00079 -11.504421 0.0
-60.049049 -7.3589 146.74675 4.0
24.359383 -2.195133 -12.210758 0.0
-7.46345 3.8341 10.56815 2.0
-15.36945 23.968901 -88.288948 3.0
-48.717575 -11.904364 102.38405 4.0
-10.924542 9.621616 -17.410524 2.0
39.354385 -20.852924 -1.47485 0.0
-52.099247 -11.332832 114.89878 4.0
-29.574776 -10.09485 51.382378 4.0
-27.379183 37.125431 -103.20481 1.0
-30.453449 33.127102 -104.88035 1.0
44.881149 -24.06505 -0.44735 0.0
-20.246574 7.965575 -8.829925 4.0
-30.778996 -4.610371 58.657169 4.0
-17.1814 13.1168 -35.887852 4.0
-3.2246 16.062078 -45.460278 0.0
-18.7486 33.775291 -125.80484 3.0
-14.894825 17.207575 -54.758751 3.0
-14.942034 35.225918 -143.29932 3.0
-18.343849 -8.3098 23.197651 4.0
-57.863853 -9.1272 140.96201 4.0
-28.87525 -6.355383 46.431583 4.0
-16.093975 35.265121 -148.64745 3.0
28.8673 -15.07267 -5.54792 0.0
40.962997 -30.932098 -0.48215 0.0
18.010075 2.593325 -16.390049 0.0
-15.92255 25.284401 -92.319054 3.0
-33.185051 33.779099 -101.8926 1.0
-37.908051 -8.923699 85.384125 4.0
-10.984651 7.660925 8.903059 2.0
-24.391251 -10.3269 36.018448 4.0
-12.62125 17.65395 -40.322647 2.0
-60.09164 -7.63501 136.63818 4.0
-55.26685 -10.3584 123.03475 4.0
47.807507 -30.4403 -0.692406 0.0
-14.871651 27.618916 -105.51923 3.0
-37.95451 -9.737689 90.077789 4.0
-23.523489 2.54844 31.102772 4.0
-14.343483 28.295444 -110.22028 3.0
-24.605417 36.680771 -108.41547 1.0
12.352183 -3.288489 -20.808733 0.0
-56.616142 -11.661783 119.87151 4.0
-5.34995 -5.1197 33.387283 2.0
-13.34335 0.58055 0.9013 4.0
15.8097 3.879183 -19.108315 0.0
2.91415 12.048034 -34.292683 0.0
-16.734449 10.9632 12.01675 4.0
-35.572739 -13.896987 68.263405 4.0
-7.977933 14.298468 -54.964935 0.0
-20.108637 5.403958 32.610409 4.0
-19.136049 5.4624 33.999748 4.0
-9.467199 4.177 0.8319 2.0
-21.174084 4.066025 34.309933 4.0
-15.42405 29.471701 -97.881653 3.0
-12.40765 8.0973 -20.341215 2.0
-35.927952 -7.984 83.261551 4.0
61.855774 -33.807701 -2.1587 0.0
-23.8969 -5.35635 30.166302 4.0
-14.86345 29.164051 -113.26155 3.0
-20.104683 33.603798 -120.89613 1.0
-19.282284 35.113865 -134.91438 3.0
-16.216049 24.694099 -78.593849 3.0
13.664363 5.876825 -22.374027 0.0
-15.380033 16.410698 -33.439312 4.0
-43.891323 -12.1724 86.570808 4.0
-17.7428 10.68985 -8.612699 4.0
-40.562393 -14.347156 77.786697 4.0
-52.004852 -11.442924 119.173 4.0
-29.663513 -15.165663 59.320877 4.0
-25.863276 31.365776 -112.73123 1.0
-29.095051 -16.0637 57.007751 4.0
-17.553825 35.489876 -151.83192 3.0
-14.9059 11.860849 4.19715 4.0
-17.025537 11.499378 -10.639178 4.0
-17.583199 16.031151 -47.477898 4.0
-57.952251 -8.6591 132.68906 4.0
-38.302181 -9.5325 88.733284 4.0
-63.945049 -5.3599 143.17046 4.0
-56.207397 -12.184433 117.15225 4.0
52.623699 -27.631451 0.06905 0.0
-13.82765 19.382275 -69.176048 3.0
-20.96245 3.0578 6.02025 4.0
-25.524649 33.065567 -111.44431 1.0
-11.4117 7.85325 -14.5514 2.0
-59.233871 -12.122238 121.8958 4.0
-13.944616 29.770433 -103.3054 3.0
-19.991524 7.3968 4.114308 4.0
-51.389091 -11.507181 122.65495 4.0
-37.976215 -8.8626 80.931198 4.0
-19.503651 10.4705 -20.83725 4.0
-32.210716 -6.377175 83.520279 4.0
-20.358601 38.903 -164.04199 3.0
-18.8771 32.9133 -125.36985 3.0
58.8778 -35.67625 -2.4405 0.0
-49.105824 -12.2429 125.64347 4.0
-13.78855 24.426201 -90.544548 3.0
36.615551 -18.0718 -2.62235 0.0
7.961033 3.615383 -30.590282 0.0
-11.05355 10.950088 -18.043674 2.0
-15.090458 12.905725 -14.638187 4.0
43.396873 -20.610424 0.040125 0.0
-29.840281 -14.193961 58.019169 4.0
-54.115753 -10.623766 121.67621 4.0
-26.342262 35.876461 -106.88737 1.0
-14.85415 28.860901 -94.278053 3.0
-38.667229 -9.107159 84.431656 4.0
-13.98085 22.064951 -77.675995 3.0
65.427101 -36.79015 -3.68795 0.0
-14.60095 29.058735 -98.05484 3.0
-17.486176 30.10025 -108.99149 3.0
-20.591736 6.484703 24.405182 4.0
-56.59058 -13.946683 112.10095 4.0
-33.639149 -6.6081 61.159752 4.0
-41.627048 -9.43735 86.221054 4.0
-33.430779 -9.433218 62.752186 4.0
-42.666481 36.697769 -93.456001 1.0
-16.891701 7.76935 -18.302799 4.0
-17.225124 32.499374 -134.23947 3.0
-43.229519 -12.636056 84.150238 4.0
54.99025 -25.094299 2.95155 0.0
-19.652201 35.38155 -114.58725 1.0
43.671444 -15.771641 1.628242 0.0
-50.488998 -17.07375 93.412643 4.0
-32.475452 -13.91 62.897552 4.0
-21.002451 -0.8055 14.20645 4.0
-18.948872 36.796371 -160.6087 3.0
-16.109852 12.435482 -13.682034 4.0
-47.915451 36.242199 -96.153152 1.0
-12.606625 2.87955 -4.8056 4.0
-21.698151 33.990601 -116.73315 1.0
-29.390976 -3.680438 51.302711 4.0
-12.71625 4.1588 -3.09305 4.0
-16.988577 13.419257 -24.110867 4.0
-54.478199 -10.4771 131.6859 4.0
16.980949 0.19395 -18.9275 0.0
-59.428951 -7.419 142.30714 4.0
-17.664249 33.405403 -138.03506 3.0
-11.786688 16.125275 -40.991863 2.0
-14.86715 12.63445 -38.229927 4.0
-27.125494 -1.604778 47.623203 4.0
31.160933 -7.984292 -7.568733 0.0
25.141998 -9.539801 -10.927675 0.0
-23.496651 1.0502 18.42725 4.0
-14.526352 32.617317 -118.93616 3.0
-8.639221 0.700743 11.938783 2.0
40.037975 -15.148884 -0.055063 0.0
-12.908751 9.0319 -24.632599 4.0
-12.389725 12.472567 -35.692444 2.0
-20.832523 -9.871426 30.363575 4.0
-47.885181 -11.937568 111.33984 4.0
-19.117743 34.60136 -120.16726 3.0
-10.029646 1.90305 6.151471 2.0
42.500526 -22.011126 -0.64655 0.0
-62.246014 -10.973886 129.34344 4.0
-15.523049 24.298773 -74.696877 3.0
-17.307549 36.545097 -157.95486 3.0
19.657751 -4.998475 -16.103451 0.0
-13.9883 16.705524 -53.264999 3.0
-62.571899 -5.163067 143.45808 4.0
2.96675 4.8593 -34.16465 0.0
-17.806049 -0.8092 8.171349 4.0
-20.517435 -3.790651 19.608931 4.0
-14.312099 15.709351 -49.674549 3.0
39.956326 -19.302124 -1.196775 0.0
-19.041067 9.480982 -10.39249 4.0
-14.8951 26.667999 -100.5139 3.0
-19.394424 9.425825 -16.7747 4.0
-18.104965 40.475559 -161.88245 3.0
-22.366009 3.063392 34.128906 4.0
-16.974049 12.54585 -34.343948 4.0
-64.016891 -8.537783 137.13904 4.0
-64.440849 -8.5263 139.50095 4.0
-26.255522 -0.744914 39.112278 4.0
-12.69565 10.6437 -31.279949 2.0
-15.06505 36.820202 -149.40366 3.0
-36.431999 -8.0519 70.464096 4.0
26.59745 -10.317675 -9.61485 0.0
13.42455 6.9 -23.339149 0.0
-43.343254 -13.855856 108.39337 4.0
-18.866974 8.658748 13.873362 4.0
-19.08375 7.911396 28.119308 4.0
-23.24057 -11.818398 35.858711 4.0
60.973049 -36.7467 -2.84405 0.0
-24.90045 0.343533 42.056133 4.0
-15.524204 37.95583 -154.9308 3.0
-36.374352 -14.2308 70.213654 4.0
-10.335225 4.387113 -1.651175 2.0
-17.805641 37.479408 -142.9357 3.0
-62.917252 -10.1896 132.67345 4.0
-44.994549 -14.7221 85.742149 4.0
-37.544399 -9.8846 73.663849 4.0
30.346855 -20.262545 -2.032619 0.0
-61.619675 -6.680083 139.90564 4.0
-8.915317 2.36095 7.403333 2.0
-16.496651 28.92375 -113.5301 3.0
-24.842442 0.523944 48.605412 4.0
40.714951 -20.2729 -0.98705 0.0
-15.9054 16.17115 -49.571365 3.0
37.664856 -19.091433 -2.024617 0.0
-18.08 4.59145 -6.4544 4.0
-15.744474 31.084888 -123.46123 3.0
-16.50325 17.5495 -45.527451 4.0
-15.899851 -3.2678 11.4603 4.0
-13.436026 26.180849 -96.213249 3.0
-12.080151 18.070599 -52.841949 3.0
5.41915 -2.5974 -25.78755 0.0
-19.412025 36.133675 -144.69029 3.0
-18.438112 11.091825 -18.368589 4.0
-10.373457 19.980255 -65.561661 0.0
-13.6612 22.818874 -66.808899 3.0
9.330826 -4.38625 -20.970501 0.0
-28.971518 -2.241317 60.42651 4.0
13.312651 -3.8274 -19.400249 0.0
1.108918 -10.535316 53.215561 2.0
32.214474 -7.692412 -6.822263 0.0
33.08485 -18.94355 -2.9043 0.0
13.645336 -7.869196 -13.36898 0.0
-23.013588 3.086988 16.605652 4.0
2.278575 1.590062 -30.751287 0.0
-31.150499 -10.391399 57.823128 4.0
-38.819977 -11.856991 75.079178 4.0
-7.751838 3.087075 9.796388 2.0
-15.97845 30.655899 -104.52195 3.0
-42.383148 -18.660299 79.894348 4.0
-17.016451 22.7724 -73.549652 3.0
-28.45575 0.0751 61.98045 4.0
-0.789675 9.664425 -43.621376 0.0
-44.587852 33.915298 -100.70995 1.0
-12.37055 12.9919 -37.345551 2.0
-26.802099 -8.899075 40.045174 4.0
-18.19735 31.5509 -117.06775 3.0
7.645499 1.622659 -28.069525 0.0
-55.313549 -9.9695 126.59145 4.0
-25.855112 -2.13235 31.681564 4.0
-24.165565 1.869089 19.902439 4.0
-20.44215 -4.4503 20.526449 4.0
-24.698946 0.741732 23.596664 4.0
58.74115 -37.990799 -2.10205 0.0
-24.979019 0.635883 26.531807 4.0
-15.4946 24.56085 -76.064651 3.0
33.607231 -17.91589 -3.323769 0.0
-63.091 -8.373333 136.39563 4.0
-26.022751 -13.8442 40.371849 4.0
-14.821753 -3.223828 10.687823 4.0
-31.414505 -5.844202 54.459087 4.0
-17.8692 34.931202 -147.73952 3.0
-24.785074 1.586508 52.819851 4.0
-59.909203 -6.960075 141.57889 4.0
-14.33755 24.16205 -87.397499 3.0
-19.041176 8.596575 -15.64385 4.0
-16.34285 17.599049 -44.354622 4.0
-19.534023 36.609642 -147.8392 3.0
-34.715469 -8.365823 65.838585 4.0
28.066799 -7.79675 -9.174025 0.0
-44.244549 -14.7369 115.55795 4.0
-43.695648 -10.94685 97.633896 4.0
-54.597603 -11.706375 117.37442 4.0
9.389267 1.051577 -26.788198 0.0
-16.688049 33.618233 -123.03692 3.0
-17.41045 36.745602 -136.96565 3.0
41.483498 -24.364799 -0.955375 0.0
-41.683033 -11.3927 98.211845 4.0
-28.561316 -2.519585 55.134388 4.0
51.704323 -31.5924 -1.1504 0.0
-14.11915 19.393299 -64.439049 3.0
-22.8929 27.759201 -115.6715 1.0
28.418686 -18.962313 -2.56695 0.0
-10.75231 20.908442 -63.748211 0.0
-11.679273 16.588572 -37.394501 2.0
-37.649948 34.4147 -99.393448 1.0
-49.991375 -12.054476 121.28802 4.0
-58.930649 -11.182591 123.65903 4.0
-29.16 -12.06255 50.7188 4.0
-14.52005 24.308266 -72.526848 3.0
-12.576991 15.6582 -28.949917 4.0
-23.050301 -0.08775 19.038799 4.0
-12.9501 23.292601 -70.931 3.0
-48.022583 -17.321167 88.722282 4.0
4.68305 -1.728925 -26.831749 0.0
-11.1706 11.08535 -22.693249 2.0
-18.999662 34.945736 -142.65886 3.0
47.052498 -30.338451 -0.6374 0.0
-35.302399 28.860699 -108.07545 1.0
33.634468 -23.447889 -0.912261 0.0
-22.836655 1.941889 38.853363 4.0
-17.562599 5.5818 -10.35585 4.0
-1.635863 -6.118237 40.005272 2.0
-12.17905 21.83745 -70.777893 3.0
-24.687893 1.006971 31.899601 4.0
-46.896019 -11.206066 102.13854 4.0
34.502777 -19.32165 -2.77145 0.0
-43.625648 -12.906 106.04445 4.0
-26.597433 -1.109468 40.627533 4.0
-14.37981 11.878544 -0.374339 4.0
-15.62475 2.33995 -3.37715 4.0
40.721951 -18.29155 -0.6664 0.0
-19.82996 8.133108 21.645409 4.0
-13.5321 13.50995 -16.084301 4.0
-3.63379 7.593864 -41.688198 0.0
-8.587292 3.874058 5.340826 2.0
49.5368 -25.375935 0.44505 0.0
-23.350183 1.760167 37.713818 4.0
-13.961718 21.742832 -60.740265 3.0
-14.63445 31.85795 -112.83545 3.0
-30.94175 -9.0662 56.222351 4.0
50.198601 -25.84095 0.3687 0.0
-22.337837 4.08625 15.973887 4.0
23.247883 -10.70663 -9.76836 0.0
-13.363775 25.421162 -80.844528 3.0
-12.25025 16.2355 -62.378052 0.0
21.559101 -3.4858 -14.5882 0.0
-12.229876 16.963699 -50.262924 3.0
-13.113674 9.408983 -0.82665 4.0
-8.222825 20.244038 -56.769287 0.0
-2.35185 -5.45778 37.66441 2.0
-8.408667 18.37085 -58.685387 0.0
-12.793375 12.762825 -18.570526 4.0
-34.623451 -12.6436 66.014748 4.0
-26.88855 36.662701 -104.46912 1.0
-32.835701 -5.6602 75.109222 4.0
23.398832 -6.103917 -12.721716 0.0
-58.964653 -9.099192 130.58286 4.0
31.47875 -10.8828 -6.37125 0.0
-16.72555 31.4175 -124.51421 3.0
-12.7829 20.314323 -56.936752 3.0
35.358051 -18.003 -3.00825 0.0
-9.4656 6.14365 -3.19545 2.0
-53.326782 -16.381666 100.53526 4.0
-17.682249 36.763 -164.64655 3.0
-55.644463 -10.026684 132.46899 4.0
-16.490101 12.49945 -15.03105 4.0
-44.545544 -14.255933 113.18552 4.0
-18.384745 33.401115 -134.28412 3.0
-15.393717 9.340633 -26.087601 4.0
-17.39595 11.5909 -13.1328 4.0
-14.3456 -1.812425 6.808 4.0
-22.73835 35.956882 -110.65048 1.0
-8.578295 6.094856 10.864961 2.0
-44.616585 33.325497 -102.45776 1.0
60.418575 -38.581348 -2.592875 0.0
-40.3274 29.8552 -105.8647 1.0
-19.384499 5.246888 34.941536 4.0
-20.378967 5.868067 -4.07445 4.0
14.63825 -2.94265 -19.697201 0.0
-15.605829 32.131134 -114.18448 3.0
-19.9083 35.223198 -117.08315 1.0
65.316353 -35.560299 -2.96505 0.0
-33.379452 36.479851 -95.768845 1.0
-25.8242 -5.355775 34.929073 4.0
-15.08875 21.8915 -78.334648 3.0
56.822449 -37.8596 -1.62535 0.0
-16.112339 10.298338 -28.033524 4.0
-57.602726 -8.864491 136.59883 4.0
-15.794174 25.342651 -94.476471 3.0
-16.93775 4.5277 -8.886249 4.0
38.170021 -17.5884 -1.9405 0.0
-13.552225 20.623825 -53.883301 3.0
34.723549 -14.455851 -3.7242 0.0
-35.960072 -11.387552 68.85717 4.0
-4.840084 14.896 -51.58485 0.0
-13.30325 15.9246 -28.49905 4.0
-35.297722 -7.42787 71.456512 4.0
-25.666962 -0.201951 40.399693 4.0
-17.00705 15.1581 -45.490349 4.0
-19.007915 2.654325 0.758508 4.0
-12.825176 2.51731 3.12576 4.0
-55.85672 -11.618633 138.13098 4.0
-16.041265 -2.29152 9.388223 4.0
-31.803329 -6.712075 56.430882 4.0
33.550003 -24.902401 -0.2836 0.0
10.027725 -2.77265 -22.551725 0.0
-2.17223 -4.366579 36.304684 2.0
23.9564 -9.19615 -10.99225 0.0
36.87085 -28.018625 -0.221 0.0
-45.112518 -10.896299 98.253174 4.0
-34.327591 -10.091875 64.810196 4.0
-50.811661 -11.498894 114.99572 4.0
-20.657351 32.459599 -120.77285 1.0
-63.127449 -2.1991 151.3318 4.0
-61.978928 -5.5011 142.90993 4.0
-8.441983 5.5259 16.72035 2.0
-14.648525 25.619339 -94.929916 3.0
-11.372917 13.100508 -28.30476 2.0
-17.600109 12.0722 -31.310692 4.0
-6.74375 2.23585 15.5112 2.0
20.500423 -2.6895 -15.533625 0.0
-49.870701 -12.747225 127.72879 4.0
-2.0578 -2.229167 35.22575 2.0
-42.123451 31.417416 -104.52344 1.0
50.004051 -23.942801 1.55785 0.0
-13.536901 28.325451 -106.29713 3.0
-28.94825 -5.533258 46.235355 4.0
-16.370262 10.889957 -29.401148 4.0
-22.90325 1.3784 16.014351 4.0
-30.038349 -0.096125 66.416679 4.0
-30.539574 -7.3764 52.866623 4.0
-10.6636 8.256583 4.02191 2.0
19.967716 -9.820538 -10.426436 0.0
-4.962517 -1.612517 25.902546 2.0
-13.098499 3.66215 -0.57355 4.0
-8.843097 18.772936 -59.595215 0.0
-17.153049 27.607025 -97.535126 3.0
51.520851 -36.301601 -0.35905 0.0
-21.071417 4.799633 0.81625 4.0
-7.104167 3.746042 15.999825 2.0
-34.070148 33.872398 -100.50975 1.0
-16.637585 19.309267 -61.928268 3.0
-7.549223 -0.77351 18.652914 2.0
-66.41761 -2.408765 153.29201 4.0
-12.087116 17.853966 -44.122051 2.0
47.568848 -25.338299 -0.09665 0.0
-11.54015 14.793075 -22.822025 2.0
-15.3142 36.127052 -138.98099 3.0
-16.0783 17.52375 -55.141327 3.0
-8.699875 -1.2959 17.673599 2.0
-19.635849 -4.144766 18.678617 4.0
-17.85965 10.3209 -24.215651 4.0
7.530375 6.64925 -30.34255 0.0
-54.831051 -16.110399 103.38135 4.0
-14.886776 26.29925 -98.61882 3.0
-56.082214 -9.5405 131.35115 4.0
40.374187 -23.846991 -1.101206 0.0
-25.552025 1.302248 54.181503 4.0
-62.608532 -3.141125 149.87309 4.0
-19.18635 33.547001 -131.43346 3.0
-2.848433 16.079124 -44.245934 0.0
-56.849304 -12.221186 117.69981 4.0
-57.926289 -12.615863 117.94119 4.0
-17.13415 24.942801 -83.698753 3.0
11.8639 0.73005 -25.3792 0.0
-16.64785 1.3558 0.61025 4.0
-10.38025 7.695766 7.389908 2.0
-25.35615 26.858551 -113.70836 1.0
-21.02795 7.0991 -6.21695 4.0
-48.766247 -12.35453 118.11389 4.0
-18.0415 37.829048 -144.2049 3.0
-14.57395 30.3591 -121.29425 3.0
-31.901352 -5.526934 55.101715 4.0
-11.604176 14.9627 -25.110624 2.0
-16.84885 6.36195 -14.3472 4.0
-64.520248 -7.5712 140.79305 4.0
-46.888451 -13.0886 116.85495 4.0
-33.120548 -6.38256 78.662582 4.0
-12.753645 21.402031 -62.270111 3.0
36.167999 -25.669401 -0.365925 0.0
-24.520733 -3.750121 29.337452 4.0
-15.886154 12.805949 -15.373317 4.0
-57.623215 -11.0735 122.98679 4.0
18.058216 0.887375 -17.429867 0.0
10.524467 1.8847 -26.879517 0.0
-12.852984 14.118783 -18.922735 4.0
-64.099564 -6.372116 141.89626 4.0
-61.058849 -12.075029 124.9114 4.0
-18.798233 34.645683 -132.65424 3.0
-19.367264 8.32456 -0.367523 4.0
-52.613167 -11.1957 117.07674 4.0
-11.893317 13.1152 -36.052486 2.0
-16.369051 22.646317 -77.394318 3.0
23.09565 -5.27485 -12.95095 0.0
-43.437389 -11.258625 100.03017 4.0
-12.773088 16.346699 -32.637794 4.0
-16.665314 18.802299 -52.973057 3.0
4.301307 -13.517572 64.341072 2.0
16.367168 -7.150558 -14.207956 0.0
-45.714653 -10.717834 98.807915 4.0
-15.793739 20.802811 -59.533772 3.0
-21.586813 4.836288 2.465875 4.0
-11.99975 13.2218 -12.33875 4.0
-40.274181 -12.749125 77.835846 4.0
-37.217148 31.475601 -104.96484 1.0
-57.275749 -13.7487 113.64875 4.0
-40.590652 -11.316383 97.105759 4.0
-17.384659 36.859871 -138.77318 3.0
-21.228966 5.608533 10.087 4.0
-29.192312 -3.390263 43.342476 4.0
-19.0968 8.283633 14.966525 4.0
-48.853302 -12.186745 118.84359 4.0
-66.622353 -1.8816 155.14516 4.0
-23.620466 -5.071183 28.844519 4.0
10.701972 -6.183056 -17.808325 0.0
-12.914175 25.618851 -86.16687 3.0
63.8452 -35.255325 -2.814525 0.0
38.098351 -21.744524 -1.472225 0.0
-19.32115 34.137901 -135.13185 3.0
-11.15415 17.249599 -47.647652 2.0
-5.97955 0.7431 20.47065 2.0
-16.97765 23.905399 -83.344147 3.0
-23.386694 2.073437 49.287323 4.0
-17.615108 40.531715 -162.63409 3.0
65.135651 -34.855835 -2.369283 0.0
-29.104599 -1.44755 62.42775 4.0
24.345371 -14.242638 -5.733196 0.0
-15.11845 18.878977 -61.503601 3.0
-19.58625 -0.038225 9.236925 4.0
-28.96435 -12.6204 49.813549 4.0
-17.339249 32.149502 -129.9326 3.0
-17.557556 11.184637 -11.284334 4.0
42.07375 -28.20565 -0.64275 0.0
-23.09404 3.404217 12.853034 4.0
2.390925 9.130475 -37.947216 0.0
-12.792112 17.548241 -38.471077 4.0
-57.464027 -12.690244 116.60933 4.0
-24.542349 0.548743 45.306252 4.0
-20.21435 -5.2537 21.82885 4.0
-29.729162 -5.151975 48.371201 4.0
-13.590692 29.892401 -113.69434 3.0
-41.20647 30.779617 -105.36141 1.0
-25.509399 -7.0557 35.6096 4.0
-51.971962 -12.065988 129.94818 4.0
-18.355616 11.815166 -28.39695 4.0
-12.525574 19.098564 -49.371212 3.0
-31.610901 -5.318025 53.796478 4.0
-3.440025 11.7003 -48.060875 0.0
-16.29545 22.737598 -78.143753 3.0
36.675697 -11.15955 -2.114825 0.0
-25.584557 -1.1176 29.122034 4.0
-13.756887 31.007236 -114.64253 3.0
26.7932 -15.148951 -5.351575 0.0
-41.303528 32.020988 -103.66682 1.0
-35.83836 -10.015931 92.172607 4.0
-61.081635 -8.149342 135.35646 4.0
-40.323425 -13.624525 103.85327 4.0
9.789577 7.051263 -27.8095 0.0
-15.08365 28.289101 -108.87265 3.0
3.315883 -13.523133 63.67625 2.0
-20.881491 3.433437 37.063557 4.0
-19.15995 0.0595 8.19775 4.0
-32.512177 -5.919975 61.635376 4.0
-13.72245 33.042 -125.53365 3.0
-36.074375 -7.89165 73.630402 4.0
-12.63725 21.066401 -71.038948 3.0
-15.1469 19.344151 -63.34515 3.0
-29.533598 -3.811125 47.268818 4.0
-12.919476 25.597883 -87.374207 3.0
-24.027666 1.987033 31.144667 4.0
-14.196375 23.269924 -83.301575 3.0
-19.082804 7.349178 -11.53185 4.0
-29.76413 -2.884673 62.521782 4.0
-18.358749 35.381901 -150.56555 3.0
-9.05825 18.425549 -61.4366 0.0
-16.68615 28.6791 -97.574852 3.0
-26.157091 35.40979 -107.89548 1.0
2.238056 7.609206 -39.05682 0.0
-13.34235 18.5755 -43.44735 4.0
-13.67725 14.8423 -46.5993 2.0
8.301361 -4.617756 -21.613806 0.0
58.498951 -28.8701 1.68895 0.0
-15.383418 11.181354 -0.202304 4.0
-9.770025 16.106876 -59.196125 0.0
-59.922623 -6.643 146.3683 4.0
-58.473984 -14.872434 114.07589 4.0
-15.28715 24.400999 -90.74865 3.0
-58.912727 -7.798875 137.07617 4.0
-54.658951 -10.40665 130.12172 4.0
-17.134399 19.672951 -61.180649 3.0
-15.083284 11.428817 2.077483 4.0
-32.789249 -6.2412 58.313648 4.0
-46.669785 -10.964283 100.61887 4.0
-23.424749 -2.4056 24.044649 4.0
-11.456475 9.654725 -22.7201 2.0
-61.354527 -3.21351 151.04314 4.0
-41.941448 -14.9884 108.93835 4.0
47.506302 -28.1141 -0.69905 0.0
-37.354633 34.811718 -98.6903 1.0
-17.245859 10.847519 -6.98074 4.0
-19.294584 34.309666 -120.86839 3.0
33.030651 -9.6187 -5.58095 0.0
-23.0294 31.08045 -116.59445 1.0
-64.676315 -3.6796 148.36693 4.0
-68.796173 3.115875 161.3559 4.0
-1.416931 -4.680389 38.281208 2.0
-48.071102 -16.364449 89.888756 4.0
-23.401651 -9.912483 34.287483 4.0
-26.096025 -0.616925 49.4991 4.0
38.2276 -11.825024 -0.4052 0.0
-8.450833 4.952967 5.94195 2.0
-11.62815 18.558399 -54.243149 3.0
50.322826 -30.408501 -0.9127 0.0
-18.134737 7.972238 -15.454762 4.0
-18.440363 9.409534 14.014171 4.0
-37.093372 -10.989917 95.288673 4.0
-39.115448 33.884903 -102.05016 1.0
-15.471167 31.922039 -112.93745 3.0
-10.47755 9.9664 -11.23075 2.0
-16.86775 33.024136 -119.92535 3.0
-5.28685 13.950067 -53.107483 0.0
-10.18145 7.3778 -8.99775 2.0
-21.791727 4.943183 21.403048 4.0
-22.636024 -7.91755 30.150576 4.0
-34.706451 -7.2931 69.016251 4.0
-13.97065 32.5014 -120.34285 3.0
-15.798925 30.22131 -103.55246 3.0
-20.952076 5.85935 14.306011 4.0
7.4364 9.159525 -30.166075 0.0
-65.849449 -6.4144 144.50635 4.0
-30.714134 34.893826 -101.35614 1.0
-16.035118 21.205967 -71.61248 3.0
1.88787 -9.871861 52.328686 2.0
-16.358084 31.894815 -128.90556 3.0
-7.634733 13.891434 -53.871582 0.0
32.852585 -12.391382 -5.135556 0.0
-33.861916 -13.304031 64.969803 4.0
-13.100063 13.402513 -40.897835 4.0
-9.105326 16.619801 -59.738449 0.0
-1.655859 -7.872771 44.263245 2.0
63.310097 -39.09605 -3.3679 0.0
-17.530449 30.138599 -110.40365 3.0
23.276075 -7.580171 -12.444255 0.0
-34.383442 -8.543755 87.604042 4.0
-41.017868 -11.89555 99.44857 4.0
-15.33885 18.660851 -45.636501 4.0
-53.700768 -12.87264 109.35785 4.0
-28.513 1.07005 62.445148 4.0
-11.567307 13.683303 -29.818062 2.0
-24.667648 1.051963 34.339371 4.0
-15.8948 6.04755 -14.37735 4.0
-37.902725 -15.630099 72.592949 4.0
-18.371099 34.929306 -129.99644 3.0
-21.839724 4.423698 28.082497 4.0
51.25185 -26.915051 0.06635 0.0
-28.171949 -1.5466 59.079948 4.0
-25.90365 -1.11745 31.109501 4.0
-19.902349 3.2197 1.66575 4.0
6.739558 6.735941 -31.34745 0.0
-50.72105 -12.51245 104.9958 4.0
-1.258237 11.69855 -44.31004 0.0
-16.031851 9.083201 -24.19875 4.0
-10.312016 8.822284 -9.447967 2.0
-10.135 6.8888 -6.92525 2.0
-16.886787 27.989851 -95.303047 3.0
-24.693174 0.9245 29.301825 4.0
-18.071352 10.607517 -10.978405 4.0
48.869617 -28.674334 -0.766717 0.0
-17.6327 32.798248 -135.36523 3.0
-18.15975 -5.026633 18.139915 4.0
-10.395451 9.496628 -5.803263 2.0
47.695534 -32.902798 -0.30525 0.0
-7.18235 4.0294 20.953051 2.0
-16.27055 36.876099 -156.35315 3.0
-21.361374 4.069375 3.89835 4.0
-53.109116 -10.9744 122.52499 4.0
-16.564999 20.17115 -58.731049 3.0
-37.032623 -9.766915 90.766846 4.0
-13.5839 23.4984 -85.456398 3.0
-2.411205 15.346955 -43.696941 0.0
-11.4547 20.2131 -68.570694 0.0
17.549471 -4.611078 -17.27809 0.0
-18.632347 34.325775 -140.01878 3.0
-38.718803 -11.98295 98.420898 4.0
-38.614948 -8.7547 76.964851 4.0
1.778758 9.885208 -38.443283 0.0
-2.367969 -2.672637 34.039902 2.0
-18.724995 8.419311 10.906134 4.0
-63.382679 -2.969603 149.61009 4.0
-8.208432 -2.050267 20.798384 2.0
25.652214 -15.842945 -4.46765 0.0
30.739895 -13.719521 -6.13025 0.0
-4.157408 15.124233 -48.618279 0.0
-12.870999 24.072691 -75.406639 3.0
17.867992 -6.563433 -15.111209 0.0
-25.423349 -9.411 37.456551 4.0
58.847702 -31.708099 -1.10075 0.0
-40.663277 -9.730949 82.952499 4.0
36.03735 -10.1803 -3.00055 0.0
-13.840533 21.789133 -76.324135 3.0
-51.861252 -11.8085 128.92406 4.0
-13.93885 24.756701 -92.560852 3.0
-15.417749 36.306049 -147.51845 3.0
-52.108318 -12.592938 108.14124 4.0
13.31425 -1.4455 -22.50935 0.0
-14.5486 19.984749 -51.443298 3.0
-20.441143 6.693992 16.025589 4.0
-17.25025 2.9803 -3.57675 4.0
-23.937302 -4.35035 28.295349 4.0
-43.349174 -13.384222 107.20934 4.0
33.630775 -20.138062 -2.349185 0.0
36.44595 -24.412201 -1.01055 0.0
-36.492451 35.646198 -94.882751 1.0
-42.440208 -10.395851 86.915878 4.0
25.978775 -7.283225 -10.68245 0.0
-60.382248 -5.487825 146.5502 4.0
-22.253651 27.367201 -116.51795 1.0
-14.125999 13.298557 -15.588308 4.0
-18.17185 31.270599 -119.63105 3.0
-11.235466 12.78227 -29.889713 2.0
-12.648149 14.627701 -29.66375 4.0
-25.263851 -2.52395 29.74935 4.0
1.375606 -6.305402 45.383835 2.0
-17.849827 13.668973 -30.499771 4.0
-42.916874 -11.59315 85.405449 4.0
-11.3771 18.787275 -65.395447 0.0
-14.397005 -0.540146 3.755638 4.0
11.681884 2.422758 -25.147898 0.0
-17.597189 -7.202825 21.579746 4.0
-17.555197 31.651604 -114.44562 3.0
-4.35565 14.6136 -50.08205 0.0
-26.962124 -12.827075 42.149048 4.0
-49.887882 -12.114356 125.41673 4.0
-18.81885 9.1629 16.012051 4.0
5.25455 8.32045 -33.111603 0.0
-24.555349 32.0014 -114.14845 1.0
3.461 -10.2662 56.54995 2.0
-15.492783 36.707565 -142.85846 3.0
-43.073479 -10.12175 90.272827 4.0
-11.741 22.615932 -66.066742 3.0
-13.343349 14.1661 -19.719885 4.0
-45.812531 -11.313099 101.54494 4.0
-55.554474 -15.803874 106.68081 4.0
-19.974836 3.803738 37.375607 4.0
-17.877899 -8.00405 22.7066 4.0
-44.064598 -17.877449 82.230057 4.0
13.525826 -6.721175 -15.477775 0.0
14.67485 -0.2714 -21.44865 0.0
-18.368874 34.735725 -145.08188 3.0
-20.43012 39.627026 -165.08971 3.0
14.0288 4.884575 -21.84985 0.0
-31.1702 -7.1051 55.189453 4.0
-7.93515 13.0788 -53.25415 0.0
42.139366 -19.011629 -0.124617 0.0
-64.236153 -4.7911 145.23206 4.0
-16.620575 23.910713 -78.689812 3.0
-48.113251 -12.105101 112.4901 4.0
-22.329987 -1.958638 19.931049 4.0
-47.945446 -14.608376 92.399017 4.0
-26.823706 -1.628783 36.219429 4.0
-16.31595 31.656799 -111.80529 3.0
-5.554551 10.393753 -47.247566 0.0
-18.191975 10.69235 -14.191875 4.0
26.65815 -3.399725 -10.978975 0.0
-18.211832 10.336808 -9.985309 4.0
55.693451 -26.513451 2.33635 0.0
-19.234983 36.954731 -142.93312 3.0
-12.788616 14.4923 -28.391901 4.0
-16.4454 2.7184 -4.07225 4.0
-28.705666 -8.895577 47.221714 4.0
-40.391197 -11.597254 79.024765 4.0
-15.769283 34.860374 -128.2722 3.0
-29.738731 -11.617992 53.626659 4.0
-17.536476 30.445148 -116.53786 3.0
-17.6474 35.697975 -132.46454 3.0
-29.143988 -14.297279 53.846107 4.0
11.86755 -0.9478 -22.97245 0.0
56.421448 -36.42178 -2.048267 0.0
-20.39465 6.8038 -7.23385 4.0
-9.795088 7.368662 7.7292 2.0
-55.61475 -13.2883 111.88036 4.0
16.962587 -8.629332 -11.227002 0.0
34.610374 -12.441411 -4.058908 0.0
-19.093975 8.391762 3.883675 4.0
-16.988232 35.351822 -129.87964 3.0
-43.864025 -13.853358 109.91604 4.0
-10.4672 9.0619 -12.2376 2.0
-14.1133 31.79125 -114.9365 3.0
42.13995 -30.804899 -0.23965 0.0
-48.766575 -11.3237 106.486 4.0
-21.88195 -10.47375 32.285149 4.0
-36.744362 -8.90639 71.939316 4.0
-31.953278 -4.418367 77.149765 4.0
-8.117906 -0.559233 16.610434 2.0
25.594816 -13.970495 -6.418175 0.0
18.67025 -4.77395 -17.24975 0.0
56.833149 -30.7118 -0.81235 0.0
-13.25575 31.4543 -117.02845 3.0
-46.962181 -11.442711 99.400177 4.0
-19.63913 9.651109 -15.4499 4.0
-58.965916 -12.093155 121.08971 4.0
-16.002651 13.139025 -38.066525 4.0
-24.1455 35.532326 -110.20828 1.0
-23.92675 1.3908 49.378151 4.0
-15.061975 34.730301 -131.55722 3.0
-3.690695 -3.795277 31.874289 2.0
-9.67585 6.62195 -4.08116 2.0
-12.796107 7.08195 -17.594831 4.0
-11.818725 7.91285 6.793425 2.0
5.694975 7.343375 -32.638401 0.0
-20.562851 -0.45605 12.3688 4.0
-19.119715 -3.322867 16.140684 4.0
6.360867 -1.573988 -25.615784 0.0
-18.27795 39.0816 -151.38095 3.0
-16.61895 4.9507 -10.059975 4.0
-18.068851 31.961601 -124.67677 1.0
18.90641 -6.308919 -15.043711 0.0
-19.481251 9.713138 -14.224813 4.0
34.958534 -15.486058 -3.522183 0.0
-53.476429 -10.84134 124.96392 4.0
-27.304819 -1.70029 46.31678 4.0
-12.761517 24.119432 -78.338882 3.0
-11.15595 10.7437 -20.95035 2.0
-23.615055 2.217943 20.62879 4.0
-23.384384 26.87355 -115.43677 1.0
-15.526784 15.584167 -29.279951 4.0
-7.89315 4.9188 16.481918 2.0
-27.058676 -6.207175 39.55069 4.0
-16.587978 19.137484 -54.373356 3.0
0.370278 -7.38718 45.465706 2.0
-1.5639 11.2375 -45.415852 0.0
-18.5616 10.67425 -15.710775 4.0
-14.549188 15.955116 -29.382435 4.0
-14.8189 34.303047 -137.44885 3.0
-63.653015 -7.152466 139.65918 4.0
-36.324448 -8.08315 72.076401 4.0
-14.867 21.8407 -62.337799 3.0
4.504283 -15.1141 68.329887 2.0
-17.921717 34.8839 -128.73546 3.0
-11.91835 5.4405 -10.85935 2.0
-27.652517 -10.107734 42.64772 4.0
18.743624 -7.861547 -13.347371 0.0
-52.386101 -12.31445 133.08415 4.0
10.605866 5.619534 -26.661217 0.0
-15.453638 13.875213 -41.569187 4.0
-12.846375 18.674625 -44.895901 2.0
31.034082 -12.147355 -6.388672 0.0
-22.258301 34.872658 -113.56648 1.0
-13.641074 30.370525 -116.60995 3.0
-23.478529 2.582057 22.102617 4.0
-4.0076 12.287951 -49.584175 0.0
43.149498 -21.69915 -0.31505 0.0
19.582279 -8.599402 -12.456368 0.0
-6.69325 3.4455 15.43165 2.0
-14.5421 22.971575 -66.174881 3.0
-26.225834 -3.099575 34.047146 4.0
-55.30455 -12.258 114.55007 4.0
-55.584923 -10.326838 124.312 4.0
-27.033152 -0.471625 55.503048 4.0
-59.1138 -9.805799 128.20509 4.0
-1.30255 -2.309 36.74485 2.0
-46.30389 -11.768041 105.818 4.0
-37.581375 31.073925 -105.552 1.0
-51.888351 -15.398388 99.095108 4.0
-23.013922 3.152945 23.913696 4.0
-18.12775 30.363001 -114.03005 3.0
-16.897121 12.346062 -15.793554 4.0
-57.4333 -9.462625 139.36256 4.0
-15.184626 5.1741 -12.009624 4.0
-51.825974 -16.886499 96.929977 4.0
-27.334887 0.906135 59.398781 4.0
-23.203432 1.895105 48.087032 4.0
-14.920383 32.443317 -129.90079 3.0
-25.284866 36.116833 -108.14338 1.0
-20.789249 3.0636 42.22905 4.0
-61.177551 -5.3803 143.98344 4.0
-12.74315 26.469133 -93.88192 3.0
-46.058773 -12.337316 109.3762 4.0
-39.162216 -13.034894 101.54498 4.0
-16.3374 21.615299 -64.806076 3.0
-63.190727 -5.97415 142.08521 4.0
-27.965555 -6.615744 43.396278 4.0
5.443325 -15.560775 71.218201 2.0
-22.279427 4.271362 20.234625 4.0
-13.6472 2.671 3.805225 4.0
58.239899 -32.823425 -1.839875 0.0
-13.041878 26.567867 -89.819389 3.0
-29.847132 35.612137 -101.26627 1.0
-28.54635 -10.2551 46.737049 4.0
-27.936264 -13.822237 44.5406 4.0
-15.10085 11.605949 6.02925 4.0
-2.69825 -6.644533 40.139545 2.0
-12.185346 10.486609 -6.178025 4.0
32.38105 -5.4311 -8.52705 0.0
-25.970913 0.075758 52.566963 4.0
-7.05435 3.981 22.72085 2.0
-32.822754 -5.880642 67.010963 4.0
-13.11515 27.647249 -94.525604 3.0
-19.049509 38.32476 -149.85071 3.0
-14.71031 11.705339 2.85959 4.0
4.681513 8.859575 -33.789513 0.0
-18.574787 10.085088 17.409182 4.0
37.924698 -20.861 -1.6665 0.0
-65.243095 -3.095821 149.90019 4.0
-17.624001 6.3043 -12.457951 4.0
-35.418938 -13.360288 67.783417 4.0
-12.602076 13.94685 -41.312176 2.0
-34.896187 -9.119516 66.431602 4.0
-1.145725 14.202853 -41.181366 0.0
-4.988885 -3.760823 29.601109 2.0
-8.480112 5.866979 9.449558 2.0
-20.198799 -6.914775 24.393074 4.0
-18.096825 33.381351 -136.38922 3.0
-20.689301 5.12575 31.273449 4.0
-20.197706 35.225777 -115.9595 1.0
-36.801403 -10.569505 93.681999 4.0
-22.150141 4.391295 18.305454 4.0
-24.94915 37.260601 -107.29995 1.0
-32.154724 -8.861425 59.372726 4.0
-46.378616 -17.882725 85.585464 4.0
-20.36195 -1.1129 13.36295 4.0
-11.538758 12.414184 -23.860367 2.0
-22.75325 3.5725 25.223249 4.0
-17.396675 2.0767 -0.424825 4.0
-20.303801 30.05965 -120.61795 1.0
-52.653305 -11.559008 130.13086 4.0
-41.761551 35.195202 -98.75795 1.0
-14.130217 32.803734 -129.4491 3.0
-27.279312 -11.227002 41.786312 4.0
-17.252022 34.634693 -146.27118 3.0
-33.749855 -7.594717 84.804932 4.0
-17.09453 14.621593 -31.431511 4.0
-37.325851 -8.3455 80.112747 4.0
-13.580197 11.802738 -35.270844 4.0
48.834549 -22.7367 1.73885 0.0
-25.586514 29.662624 -113.20464 1.0
-30.632458 -4.379142 60.098766 4.0
-17.593149 8.8397 -19.73955 4.0
-46.035023 34.259682 -100.56231 1.0
-19.143101 37.050797 -143.67581 3.0
-15.461855 17.476166 -39.728321 4.0
-28.07515 -2.364 50.20705 4.0
-14.15257 31.91782 -124.93607 3.0
54.351349 -31.91715 -1.50625 0.0
-19.553551 29.595749 -122.52303 1.0
-49.415691 -12.791591 100.31731 4.0
-23.397165 -1.421289 22.327963 4.0
-15.410683 14.889717 -25.050808 4.0
-11.725483 15.7301 -61.081951 0.0
-28.76425 -14.7501 48.626049 4.0
-2.889 11.4836 -47.626549 0.0
22.384535 -6.696217 -13.388916 0.0
-17.39465 13.6615 -27.983101 4.0
-46.972198 -12.506824 112.68375 4.0
-12.78845 12.5267 -4.97115 4.0
-5.70125 2.4447 22.51495 2.0
9.365976 -5.669712 -19.403662 0.0
-28.90925 -3.21776 50.832581 4.0
-3.077983 -3.4948 32.910751 2.0
-24.689751 -7.289267 34.13438 4.0
-47.622742 -13.934604 92.795845 4.0
-21.920883 4.629307 24.840931 4.0
-9.467418 1.366725 8.625563 2.0
-28.598305 -2.316495 56.582592 4.0
44.037277 -29.323324 -0.638575 0.0
7.969099 1.149053 -27.40222 0.0
-53.796104 -13.581411 107.88793 4.0
-32.833126 -6.111569 80.362556 4.0
-15.81465 35.801399 -133.46335 3.0
-45.172684 -13.973891 116.1904 4.0
-8.697676 19.607244 -58.059456 0.0
-11.91025 3.182 0.6033 2.0
-48.836102 -16.36945 91.349678 4.0
-32.638248 -5.9624 60.331551 4.0
27.180534 -19.152134 -1.985233 0.0
-18.104805 13.63835 -32.007431 4.0
35.38385 -26.8533 0.10815 0.0
7.998125 5.205575 -29.876642 0.0
-20.216049 39.1731 -158.97055 3.0
-57.401176 -9.967899 141.63452 4.0
-11.353508 9.617042 -2.60727 2.0
-16.146183 27.398672 -90.325584 3.0
-36.445801 27.22365 -108.74875 1.0
-56.712551 -9.728512 137.19476 4.0
-13.54805 22.5956 -82.052948 3.0
-24.079514 -9.733562 34.861427 4.0
-32.336952 -5.191339 70.660995 4.0
-15.02455 -3.0053 9.97585 4.0
13.01935 2.5719 -23.630951 0.0
-15.3496 37.096748 -150.0428 3.0
-17.266178 32.518871 -118.03225 3.0
-29.195114 -2.899121 57.4123 4.0
-29.082935 -3.426275 49.987724 4.0
-31.702351 -10.70645 59.512901 4.0
-67.738899 0.13745 157.09195 4.0
-15.631426 24.495274 -89.210228 3.0
-35.035202 -9.08275 67.26265 4.0
38.1534 -14.574717 -1.343992 0.0
12.40775 7.5218 -24.44285 0.0
-8.484241 3.664317 6.412467 2.0
13.49425 -5.926233 -16.713249 0.0
-12.03885 12.0244 -16.47555 2.0
-41.888084 -13.619291 80.480431 4.0
-17.079248 -5.9056 17.920782 4.0
-17.118549 24.882099 -86.259552 3.0
-31.5492 -4.37325 78.866699 4.0
-29.823784 -8.797516 51.24435 4.0
-15.591051 28.361977 -109.45853 3.0
-12.412975 3.80835 -7.04295 4.0
-15.797464 37.634491 -162.5563 3.0
-29.8836 33.300758 -105.41727 1.0
-19.335251 37.1558 -145.04089 3.0
-34.136353 -7.287261 82.33783 4.0
23.017851 -13.1934 -6.28805 0.0
-28.57037 31.372107 -109.27702 1.0
-53.349613 -12.3033 134.30348 4.0
-53.629265 -10.856542 121.16718 4.0
-13.97105 15.205851 -47.9436 3.0
-16.832352 25.882401 -88.811401 3.0
-49.309204 -12.199318 102.69691 4.0
-23.0205 -2.929575 23.733452 4.0
-46.675415 34.616924 -99.839378 1.0
27.338097 -3.755989 -10.835848 0.0
-12.742069 23.239079 -72.355385 3.0
-52.390198 -12.982349 107.25939 4.0
-8.6567 5.59664 4.3911 2.0
-16.0324 5.0405 -10.943 4.0
-19.382246 7.720704 11.21165 4.0
-19.893726 9.06695 -11.575775 4.0
-15.904141 37.656185 -147.80678 3.0
-22.980076 3.455067 10.642967 4.0
-18.608387 12.921588 -30.284838 4.0
-14.27725 12.9512 -14.14535 4.0
-61.642273 -4.73745 146.53195 4.0
-55.338833 -10.261101 133.8822 4.0
-65.007713 -4.944566 146.19301 4.0
-17.245674 16.5023 -48.906723 3.0
-14.41135 29.682335 -100.35665 3.0
36.230251 -8.7113 -3.66255 0.0
-16.850649 20.550938 -62.216278 3.0
-10.09885 -1.5762 17.83515 2.0
-13.618338 3.25905 2.144337 4.0
-16.411449 30.0014 -117.35395 3.0
-28.14385 -1.08455 59.7048 4.0
57.218475 -33.738274 -2.058225 0.0
-16.89657 26.112982 -90.092934 3.0
-15.687901 35.3167 -132.0947 3.0
-34.388443 -16.97975 67.690201 4.0
-3.80468 -6.287655 38.352161 2.0
-14.5121 33.705151 -129.29486 3.0
-5.00515 14.5357 -52.46595 0.0
46.444298 -22.7278 0.6258 0.0
-30.936001 -4.8764 50.635803 4.0
-60.720348 -8.622134 133.90926 4.0
-41.3106 -15.11055 78.940155 4.0
-17.07995 16.320534 -41.819885 4.0
-17.34185 26.655899 -96.432053 3.0
-28.698851 -3.0195 40.747849 4.0
29.485037 -11.0012 -7.616794 0.0
-26.866901 -9.69445 40.283051 4.0
-62.304295 -6.96105 139.46095 4.0
-8.881991 14.191067 -55.6171 0.0
-47.97485 -12.0199 99.736252 4.0
-16.976059 20.795872 -63.727386 3.0
-45.503277 -13.723 117.44722 4.0
-18.065083 12.367184 -23.873533 4.0
-39.106171 -9.249847 85.06443 4.0
-19.693317 7.6865 18.554785 4.0
-17.111 12.29895 -32.890503 4.0
-15.2072 33.345802 -136.8681 3.0
-12.28365 24.9662 -84.256653 3.0
-19.602617 4.055708 -1.045725 4.0
50.483498 -28.883675 -0.801025 0.0
-13.126812 23.817713 -84.431229 3.0
-12.077483 6.144417 -13.126301 2.0
-15.665592 17.212383 -38.818409 4.0
-15.1552 22.25555 -64.74295 3.0
-16.114359 23.372761 -72.748718 3.0
-24.0606 -5.52 30.857651 4.0
2.903206 -11.633914 58.345947 2.0
-8.133825 4.020213 7.659575 2.0
-5.313975 13.143074 -51.604725 0.0
30.110352 -13.0793 -6.64605 0.0
-28.854351 -14.63837 52.374928 4.0
-16.005836 32.607784 -116.86601 3.0
-42.924648 -11.8447 101.04215 4.0
-13.7115 5.09795 -11.529699 4.0
-51.492523 -14.35697 100.6071 4.0
-50.933487 -12.379745 106.38963 4.0
-9.465 18.871525 -63.595573 0.0
9.206311 3.331742 -28.346066 0.0
23.36055 -16.252001 -3.15045 0.0
-14.631053 18.494032 -43.067242 4.0
-45.804882 -13.580325 115.05785 4.0
-13.04115 13.8041 -17.024549 4.0
-64.4823 -6.04025 142.7299 4.0
-19.611515 7.604571 13.418846 4.0
-13.363117 19.694866 -68.546265 0.0
-16.144493 37.971855 -161.61272 3.0
-14.79735 38.0592 -155.54825 3.0
-25.02331 0.446729 37.663021 4.0
11.124451 1.374125 -25.649601 0.0
-15.325251 16.555317 -34.151863 4.0
-36.458961 -8.147775 74.218239 4.0
-45.399109 33.833641 -101.53427 1.0
-18.548401 29.809151 -124.87289 1.0
-2.715767 13.864516 -46.026184 0.0
-57.471573 -9.111538 138.35928 4.0
-20.455198 6.746151 23.235298 4.0
-13.59895 22.7798 -82.832748 3.0
13.025743 -7.406478 -14.524979 0.0
-19.655275 8.504037 19.897888 4.0
-13.665517 29.883635 -106.92572 3.0
-14.695951 14.4706 -22.099318 4.0
-15.06875 22.0375 -63.318951 3.0
-31.150616 -4.904714 59.5084 4.0
21.73745 -10.814 -9.70025 0.0
-13.87595 16.99 -66.112053 3.0
-34.030365 -8.825277 63.999836 4.0
52.705627 -32.252373 -1.394575 0.0
-4.028316 -0.1036 28.863749 2.0
-20.106449 9.0723 -13.04965 4.0
-30.724033 -2.9143 67.809387 4.0
-19.108435 11.608083 -24.344934 4.0
-17.896351 33.967674 -141.84811 3.0
-20.626598 6.508841 19.406712 4.0
-66.725998 0.452959 156.15164 4.0
-65.617134 -2.689075 150.84332 4.0
1.59235 11.506766 -37.557396 0.0
-7.150175 3.170725 14.152536 2.0
-22.56694 3.8279 25.942766 4.0
36.265877 -15.360525 -2.8838 0.0
32.676147 -16.477699 -4.09425 0.0
-12.45225 26.1049 -88.627953 3.0
-15.77015 8.615975 -23.18045 4.0
-47.89875 -12.1143 123.70045 4.0
-22.315783 1.914967 12.933949 4.0
-40.998074 36.436371 -93.402382 1.0
-13.676205 21.127399 -57.460007 3.0
-15.70675 18.481449 -59.217701 3.0
-9.076401 19.624832 -59.158833 0.0
21.398325 -12.070675 -7.0588 0.0
-14.203224 32.909348 -126.76033 3.0
-18.744249 40.5793 -163.33356 3.0
7.860667 -0.744612 -25.825768 0.0
25.538776 -3.0823 -11.652575 0.0
54.19075 -27.02 1.11985 0.0
-10.327381 13.670461 -55.988197 0.0
-33.071739 31.051849 -106.57167 1.0
-16.378601 38.927216 -155.54417 3.0
-14.614433 25.056498 -91.981445 3.0
-19.914612 37.883968 -162.97545 3.0
-8.00895 5.282255 9.993549 2.0
-30.038151 -10.2799 53.286049 4.0
-16.42495 40.599201 -157.72224 3.0
-47.888535 -12.982149 95.856506 4.0
-28.636461 33.630787 -106.32502 1.0
-60.383949 -13.085199 121.51636 4.0
-43.478752 -15.92 81.975098 4.0
-29.17415 -9.995125 49.857784 4.0
-17.268158 16.665323 -44.322712 4.0
-40.970146 -11.021283 95.6203 4.0
-18.66625 3.889183 -3.400917 4.0
-31.379049 -4.6044 66.456848 4.0
-17.235451 34.291527 -144.01984 3.0
-32.223568 -5.843356 81.995987 4.0
-13.661226 31.359161 -120.77499 3.0
-14.46225 28.62825 -112.54695 3.0
-16.293549 12.794001 -36.059502 4.0
-2.21025 -3.577925 35.100151 2.0
-19.352299 10.354881 -18.137417 4.0
6.384724 6.187929 -32.038342 0.0
-25.848495 28.199923 -113.13889 1.0
-16.406807 26.31464 -86.588928 3.0
-16.21805 37.280701 -142.16486 3.0
-16.99115 28.973101 -100.62885 3.0
-20.898165 6.341525 2.683275 4.0
-39.577492 -12.706066 76.413696 4.0
-27.272985 -8.293033 41.108814 4.0
-30.358749 -11.7047 55.982849 4.0
-27.823399 35.56485 -104.3542 1.0
-13.312627 22.376688 -78.746719 3.0
-20.56015 7.7805 -9.50795 4.0
-33.368553 -13.8867 64.546097 4.0
43.345448 -30.090368 -0.42685 0.0
-36.27705 34.097198 -99.793854 1.0
-4.127866 -2.577977 29.21228 2.0
-38.508484 -16.623575 73.608833 4.0
-19.892725 39.33205 -157.87674 3.0
-13.64405 11.0008 -32.442249 4.0
-24.558201 1.038133 28.074631 4.0
-57.090916 -12.78905 115.94028 4.0
-14.47135 30.782101 -107.01385 3.0
-7.49905 19.7355 -54.849098 0.0
-21.7467 4.97775 18.434799 4.0
-21.09474 35.364876 -113.12539 1.0
-35.11005 34.476002 -98.317146 1.0
-18.688524 -1.902862 12.207575 4.0
-31.72695 -5.2742 63.667252 4.0
-5.30255 17.87665 -50.252201 0.0
-9.748869 19.585617 -62.316414 0.0
-5.594759 -1.708992 24.508966 2.0
42.567848 -31.4653 -0.59495 0.0
-40.927452 -10.19985 92.32045 4.0
-11.655649 10.382693 -25.962254 2.0
-16.656399 20.876549 -67.578979 3.0
-17.490883 12.372313 -20.055954 4.0
-17.737749 28.250401 -103.79235 3.0
-18.451836 11.301336 -19.654995 4.0
-16.387375 35.046173 -149.52917 3.0
-14.4491 29.036825 -114.46397 3.0
-11.867988 24.121281 -66.698364 3.0
-14.420075 19.691299 -65.411728 3.0
-51.973541 -12.406438 132.17598 4.0
-34.266434 -13.418158 65.558105 4.0
-28.5737 -14.63895 47.671898 4.0
39.16465 -22.316101 -1.367 0.0
-59.158569 -7.979989 144.6424 4.0
-10.891209 8.699551 -17.848742 2.0
-13.661525 19.647202 -48.1409 3.0
-26.137903 0.354244 53.830215 4.0
-19.970051 7.31695 8.229206 4.0
-18.0886 39.192398 -153.96289 3.0
14.3588 3.33875 -21.857601 0.0
-55.718784 -14.403184 109.58504 4.0
-26.752649 31.303001 -111.395 1.0
34.268852 -11.86555 -4.3833 0.0
-28.820751 -11.88535 50.106102 4.0
-3.735956 -5.938512 37.341133 2.0
-14.573549 33.690487 -133.3522 3.0
-17.578224 30.387825 -111.43417 3.0
-62.853882 -10.886767 131.70679 4.0
-30.319359 -3.483708 63.386551 4.0
-28.334351 -2.792698 43.318443 4.0
-10.09095 7.2524 12.00295 2.0
-13.127125 17.684477 -56.292751 3.0
-15.128333 27.517899 -104.80069 3.0
-27.684614 34.037148 -107.1188 1.0
-26.5994 -1.122793 38.602306 4.0
-6.383321 14.265762 -54.128189 0.0
22.68465 -7.4116 -13.60575 0.0
-22.022673 -6.723889 27.672361 4.0
35.574268 -24.323782 -0.852263 0.0
-29.443226 -2.537175 61.6968 4.0
-7.77045 -3.1921 26.08165 2.0
31.34495 -4.7212 -9.49225 0.0
13.937675 6.329175 -21.826075 0.0
15.154192 1.992538 -20.839901 0.0
-3.8383 0.6579 29.22015 2.0
-13.101725 16.156574 -50.749451 3.0
-32.973049 -7.696167 61.029552 4.0
-56.773651 -10.5549 140.55244 4.0
2.92455 7.3317 -38.366051 0.0
-21.09753 4.56707 32.86631 4.0
-20.253117 37.446716 -156.40292 3.0
-26.603575 -11.234642 40.259045 4.0
-15.385654 17.693825 -56.304096 3.0
-5.510879 -2.004392 25.309298 2.0
46.981476 -33.779778 -0.08975 0.0
16.952772 -5.880524 -16.069353 0.0
-45.393932 -14.343801 86.964333 4.0
-15.708783 30.605934 -105.52911 3.0
36.869652 -21.064899 -1.7322 0.0
-22.481026 -2.678 21.702923 4.0
-12.997875 22.017826 -76.524277 3.0
-16.929399 28.905651 -99.865555 3.0
-10.7225 15.5909 -33.50375 2.0
-54.934113 -11.230766 136.52698 4.0
-11.19575 14.9822 -28.05415 2.0
-8.659228 5.864922 15.66015 2.0
-52.363266 -11.116724 123.66608 4.0
-16.913399 29.654625 -114.16487 3.0
-41.511776 -16.625069 79.053635 4.0
-48.96965 36.097301 -95.42865 1.0
-18.393293 9.430779 -0.747371 4.0
-37.696049 34.151501 -100.32705 1.0
-40.700302 36.633999 -92.614853 1.0
0.189637 -8.607752 47.466782 2.0
-62.638859 -7.834144 137.39268 4.0
-20.632957 2.962163 40.912155 4.0
-43.638885 -10.992929 89.130852 4.0
-67.8433 0.4962 158.87585 4.0
-15.080549 27.14225 -103.0695 3.0
26.38875 -5.9774 -10.59215 0.0
-15.37715 1.7221 -1.95485 4.0
-22.142448 4.141348 27.43779 4.0
-17.891369 35.955917 -134.26549 3.0
41.263763 -15.092916 0.699917 0.0
28.905149 -21.60025 -0.5976 0.0
-18.103098 9.062883 6.316717 4.0
-68.882706 3.832075 161.8766 4.0
-11.342674 21.114325 -67.455322 0.0
-12.863449 22.941952 -68.879601 3.0
-16.085424 15.072676 -44.853401 4.0
-32.687599 -5.63115 77.34169 4.0
-15.127099 6.563933 -16.646767 4.0
-55.353214 -11.238744 119.52816 4.0
-25.475677 -0.443353 27.875748 4.0
-45.350449 -13.8057 113.59855 4.0
-13.376149 27.473988 -101.64653 3.0
-30.687651 31.639999 -107.148 1.0
-16.2864 35.882797 -132.33856 3.0
-25.874699 -1.011904 29.843483 4.0
-13.008651 20.7892 -71.8657 3.0
-16.103617 24.403234 -87.356316 3.0
0.111948 -5.367844 42.170769 2.0
-26.773451 -1.2024 31.78005 4.0
15.648293 -1.636056 -20.596695 0.0
30.61035 -15.36315 -5.1308 0.0
5.410363 -1.927 -26.047089 0.0
25.714951 -13.1106 -7.51245 0.0
-18.105099 14.61565 -38.908722 4.0
-18.565201 36.055298 -120.0859 1.0
-57.37545 -8.9237 131.80995 4.0
-16.85005 16.193001 -50.142349 3.0
-16.101101 36.152851 -135.57816 3.0
-20.267399 32.504051 -121.4851 1.0
-33.800594 -8.561088 88.646873 4.0
25.391125 -10.652925 -9.352083 0.0
-10.1024 1.2993 7.7261 2.0
-4.909683 16.381966 -49.647266 0.0
-19.533516 8.141832 17.066517 4.0
-47.617928 -16.629601 88.903976 4.0
50.231201 -26.82375 -0.182875 0.0
-27.577709 -2.134004 41.009056 4.0
-14.608959 16.12129 -30.392857 4.0
-27.579334 1.0819 60.13517 4.0
-16.665855 24.982868 -81.753868 3.0
-16.338991 39.513634 -156.86946 3.0
-12.6216 19.891201 -56.283951 3.0
-40.611237 -16.386568 77.660065 4.0
-26.648693 -7.979617 39.357018 4.0
-30.902424 -0.8593 72.1278 4.0
-68.232544 3.119756 160.08418 4.0
24.654284 -5.293334 -12.013616 0.0
-30.187401 -3.1319 64.289124 4.0
