# .PCD v0.7 - Point Cloud Data file format
VERSION 0.7
FIELDS x y z label
SIZE 4 4 4 4
TYPE F F F U
COUNT 1 1 1 1
WIDTH 1426
HEIGHT 1
VIEWPOINT 0 0 0 1 0 0 0
POINTS 1426
DATA ascii
-18.783995 -12.695158 61.946541 4.0
2.71605 50.08345 -97.939949 1.0
-55.751747 -55.132248 125.23055 4.0
-21.807001 -18.067139 70.853447 4.0
3.449942 56.106697 -125.04784 1.0
2.370975 47.900574 -65.250351 1.0
-8.96085 27.500999 -2.9813 4.0
-21.527332 -7.296467 60.582584 4.0
-2.112846 32.867195 -22.979475 4.0
-35.612614 -39.80611 101.82343 4.0
8.252138 22.388184 73.92041 0.0
-9.639505 -4.098437 46.618477 4.0
7.670475 21.182249 63.775749 0.0
3.317862 60.291679 -135.61438 1.0
-62.091553 -57.652225 133.10675 4.0
-8.904301 53.889301 -112.62285 3.0
10.607626 44.393288 -44.18837 2.0
-15.87245 -2.2756 44.327698 4.0
7.971367 19.631533 47.165035 0.0
-42.943237 -37.39468 114.99548 4.0
-1.038117 41.903633 -60.37323 1.0
-23.181286 -17.210108 71.153267 4.0
-18.247351 1.5636 47.202599 4.0
93.630692 36.811146 7.941205 2.0
-15.652599 1.700425 37.955376 4.0
-24.60825 -24.123749 79.589851 4.0
-4.102118 8.679724 22.537088 4.0
13.534351 21.554314 107.28345 0.0
-34.6875 -28.941639 95.405807 4.0
-3.345508 23.966217 -12.87406 4.0
2.88355 33.622177 -26.824902 4.0
-8.267458 12.943394 12.635612 4.0
1.2312 29.26495 -19.889299 4.0
-20.194225 -12.136225 62.490623 4.0
-12.036724 47.750439 -112.82619 3.0
-63.424999 -61.312256 132.52982 4.0
-2.970825 7.232805 28.624651 4.0
-21.759846 47.928711 -105.65465 3.0
-10.704433 11.606916 18.467958 4.0
3.8724 25.825609 -2.248958 0.0
0.102575 42.151402 -46.988476 1.0
-25.092289 -25.629299 82.039856 4.0
-5.78045 23.946491 -13.849137 4.0
-25.621998 48.15263 -101.49931 3.0
58.388775 38.408714 6.5942 2.0
-0.48445 60.332802 -153.36169 1.0
-35.148449 -43.636627 104.41623 4.0
0.713005 56.328777 -116.85267 1.0
-11.838592 20.502934 15.933949 4.0
-37.630249 -37.7094 101.6943 4.0
-12.421975 -14.375525 60.897449 4.0
-26.903351 -22.014999 79.943298 4.0
-7.81325 24.789801 -3.0153 4.0
-52.220432 -52.881763 120.91174 4.0
-11.238158 -13.099133 58.340614 4.0
-24.9095 -5.89015 72.882401 4.0
-8.61405 1.2083 37.276798 4.0
-23.4939 -2.5945 62.623398 4.0
45.026138 44.334126 -3.296449 2.0
5.88745 22.689699 47.541832 0.0
-70.206604 -60.203453 141.8959 4.0
-9.38035 20.845551 5.03845 4.0
-48.180977 -53.600098 116.03438 4.0
-15.282608 -10.651317 57.599518 4.0
-6.694275 31.376999 -13.67165 4.0
13.763879 40.351768 -44.619713 2.0
7.297225 21.095024 43.636574 0.0
-63.572338 -55.939537 140.67148 4.0
-2.844 35.620998 -35.865402 4.0
-1.087935 42.388962 -63.74876 1.0
4.809128 63.883575 -163.65874 1.0
2.248403 53.027847 -97.782059 1.0
4.261775 56.152153 -119.29615 1.0
-6.163095 56.22168 -113.54557 3.0
2.225067 30.224821 -27.119184 4.0
17.4704 43.594101 -31.623474 2.0
-41.60215 -37.372803 108.35969 4.0
10.05932 20.111986 82.746414 0.0
-2.249388 25.653753 15.410072 0.0
-59.368435 -53.579052 137.16405 4.0
-0.739146 57.860367 -129.71716 1.0
-11.739345 2.507078 34.545609 4.0
30.094824 42.790997 -15.806094 2.0
3.385142 49.606773 -86.557571 1.0
3.376646 23.292706 49.200127 0.0
67.946167 30.202082 8.015699 2.0
3.652783 30.173735 -15.648766 0.0
2.634 32.536518 -17.813185 0.0
36.061939 39.700764 -11.796741 2.0
9.73295 41.779552 -53.265167 2.0
1.666906 40.86668 -48.977951 1.0
3.408045 59.257915 -130.70058 1.0
-74.018463 -61.027874 147.19347 4.0
-6.45195 25.4076 -8.296 4.0
26.036148 43.512699 -21.741632 2.0
-21.498161 -28.855745 80.245804 4.0
-22.144281 -1.439828 58.352627 4.0
0.07825 21.2251 -5.7751 4.0
0.536249 44.15247 -59.599758 1.0
-30.98288 -16.211525 87.566872 4.0
1.116513 57.984886 -141.21262 1.0
-62.372219 -54.857548 143.63338 4.0
1.211846 35.585274 -26.846123 4.0
3.89995 24.9296 -15.6011 4.0
-7.36375 13.202292 12.314883 4.0
6.749252 22.224096 62.791859 0.0
-9.29996 15.624611 8.550369 4.0
11.17085 19.5413 95.797699 0.0
-14.513462 -5.805044 49.883858 4.0
-102.08694 -66.601654 166.55115 4.0
3.364016 62.448639 -161.50468 1.0
5.4226 24.308849 8.8463 0.0
-27.117699 48.035202 -99.488602 3.0
30.174189 34.020294 -17.267162 2.0
-17.802143 0.783256 46.558144 4.0
9.224447 18.809666 73.60173 0.0
-49.231674 -45.026875 117.70619 4.0
7.69685 21.145851 62.608498 0.0
1.349483 56.126831 -113.671 1.0
19.027599 43.694077 -29.568026 2.0
-2.612692 27.211666 -21.870811 4.0
-27.578892 -14.536859 80.937622 4.0
46.011345 44.622627 -2.647662 2.0
4.084433 25.177267 24.428801 0.0
-0.8581 42.851852 -62.0844 1.0
42.444149 43.096401 -4.4684 2.0
3.80455 58.600899 -138.0446 1.0
-4.42155 30.707499 -23.3603 4.0
10.9128 19.902582 90.362991 0.0
1.618675 46.968723 -86.880447 1.0
-15.9158 -0.374675 41.913673 4.0
-51.73209 -47.83279 122.84203 4.0
-28.943699 -22.977863 82.422363 4.0
41.118801 40.398727 -6.342275 2.0
9.718467 23.800928 87.778656 0.0
-9.59075 11.6419 14.2555 4.0
-51.61935 -48.74155 130.15854 4.0
-0.297 47.325901 -88.074997 1.0
-9.603725 7.499151 24.627901 4.0
6.741058 21.459354 28.802896 0.0
23.50445 39.693298 -28.704449 2.0
-23.13505 -3.644025 62.895523 4.0
0.43635 37.47715 -34.352501 4.0
96.474419 41.202621 8.374807 2.0
-83.503647 -63.035999 159.007 4.0
2.673206 22.692511 3.3655 0.0
-7.506257 3.414832 32.694313 4.0
-46.852142 -43.131866 121.63448 4.0
-8.901116 -5.294867 48.7365 4.0
1.01215 21.95665 4.64665 0.0
-79.548721 -63.512066 150.38409 4.0
-68.552277 -58.60881 144.49405 4.0
-9.763775 13.329124 13.550575 4.0
0.390246 31.980778 -11.122721 0.0
-49.647175 -48.232948 131.51526 4.0
4.01025 46.952351 -60.756523 2.0
-32.395702 -18.410854 89.847061 4.0
-10.785518 12.8139 16.988634 4.0
-12.05785 12.7373 22.75045 4.0
-34.521225 -29.584946 94.649033 4.0
-19.614399 -0.044083 51.337116 4.0
-0.08665 61.269852 -159.0181 1.0
-22.218418 -11.750444 63.780701 4.0
-60.138245 -55.013474 132.46463 4.0
-38.467796 -35.5145 102.2124 4.0
1.563644 38.543728 -39.05592 4.0
2.80015 51.620098 -90.7565 1.0
-52.991661 -50.891399 122.55128 4.0
-12.72183 13.816471 23.565929 4.0
79.365768 37.076954 9.503812 2.0
4.29535 54.444401 -106.9314 1.0
-0.466429 63.485004 -157.39236 1.0
-37.979675 -29.610174 103.27533 4.0
-15.707609 49.39592 -107.90643 3.0
-3.845683 26.498466 -4.5164 0.0
43.610138 41.481537 -4.07411 2.0
-8.163755 5.086102 29.231951 4.0
-4.042843 13.836515 10.667923 4.0
4.54505 22.280924 10.309225 0.0
1.89965 37.657818 -35.57217 4.0
86.796829 39.865639 10.918325 2.0
61.781719 41.864777 10.645537 2.0
16.414125 41.519676 -39.478001 2.0
-1.565408 8.920048 24.415615 4.0
-24.725863 -31.246012 89.409203 4.0
-28.284325 -15.893597 82.395271 4.0
2.199956 23.892654 40.38868 0.0
-11.761814 -7.238208 51.238262 4.0
31.658014 43.357376 -12.735126 2.0
-24.535675 -10.9039 70.249077 4.0
1.372042 37.077232 -33.00251 4.0
-16.98505 -6.1824 52.339348 4.0
-11.346951 13.8828 19.52125 4.0
2.8807 31.275076 -10.374887 0.0
1.195263 24.029251 37.219639 0.0
-22.035196 2.560689 52.913422 4.0
21.088749 41.850601 -30.17515 2.0
-3.61305 2.2027 37.468102 4.0
-54.052467 -49.899601 130.59436 4.0
0.563075 49.946983 -86.674179 1.0
-1.231675 27.743101 -22.6693 4.0
-66.098602 -57.738052 147.39209 4.0
4.42605 23.517679 5.9211 0.0
7.604783 44.386009 -52.977135 2.0
-21.880575 -11.723576 62.941048 4.0
-44.316349 -44.6632 110.9559 4.0
69.511208 41.127098 12.982875 2.0
-47.503944 -44.34388 124.42856 4.0
-9.984651 -10.724174 55.618099 4.0
0.203888 43.485405 -56.537521 1.0
-15.750158 -8.478451 54.406082 4.0
-16.033035 50.5224 -104.47195 3.0
-1.660238 23.367077 29.903976 0.0
89.80481 38.580112 9.022027 2.0
1.89 24.323925 32.569424 0.0
8.492701 22.147551 72.070747 0.0
-43.565102 -50.926876 111.57562 4.0
-5.76785 31.741951 -16.749701 4.0
-0.29135 47.028503 -84.48378 1.0
-28.038675 -28.029526 87.701263 4.0
3.286594 25.2901 25.733894 0.0
-30.650188 -30.359627 91.583878 4.0
-11.734751 14.632675 19.00465 4.0
-3.221383 33.988922 -33.438343 4.0
101.01637 38.679237 6.236129 2.0
-26.744267 48.053207 -97.067413 3.0
-9.000851 15.118299 9.9387 4.0
-80.756653 -64.414398 150.12421 4.0
-28.905262 -30.725002 91.024399 4.0
-42.468334 -36.566895 113.97163 4.0
-51.662941 -49.636116 132.9801 4.0
-40.798656 -32.652386 111.65551 4.0
38.966759 34.900246 -7.129432 2.0
-21.769444 -14.639373 66.856125 4.0
-4.6246 23.233501 17.87195 0.0
53.592175 31.391926 4.37745 2.0
3.45665 56.813351 -129.245 1.0
-28.621899 -16.672001 82.992981 4.0
-30.785099 -25.6835 87.317795 4.0
-17.022034 0.089992 44.894714 4.0
1.991746 39.793907 -44.653847 4.0
55.139858 33.704758 4.454787 2.0
-21.119738 -27.745739 77.907303 4.0
-64.316422 -57.15316 137.09106 4.0
9.176559 20.347099 74.266754 0.0
-51.141544 -47.159592 124.33354 4.0
3.52105 50.256897 -99.134445 1.0
-0.455988 53.790699 -113.20207 1.0
34.901047 37.738899 -13.820801 2.0
-23.993273 48.573181 -98.226608 3.0
-32.164326 45.7197 -100.82537 3.0
-18.029732 -12.449442 60.879875 4.0
50.52705 40.128704 1.841667 2.0
11.348824 37.039135 -46.421299 2.0
30.49592 38.606819 -19.894726 2.0
-11.0609 12.3792 20.134998 4.0
57.882618 34.06435 5.446016 2.0
-23.889851 -32.861752 91.233704 4.0
3.960625 51.656799 -99.653549 1.0
2.5891 35.875999 -42.924351 4.0
-44.084431 -39.669426 122.57166 4.0
-2.52815 9.007165 23.005192 4.0
21.641592 39.361767 -31.438784 2.0
0.764017 54.43726 -107.19537 1.0
-1.028615 63.890259 -164.59018 1.0
75.695953 37.873798 10.368 2.0
21.085049 38.643051 -31.696199 2.0
-17.126667 9.158549 40.606831 4.0
90.499847 40.536324 10.94242 2.0
-0.971865 41.521248 -52.366249 1.0
-3.321683 22.095932 30.838701 0.0
0.358192 34.969482 -24.186348 4.0
-0.217058 25.342209 23.611032 0.0
-0.22609 43.338058 -58.667049 1.0
-5.245171 3.578867 33.457451 4.0
-23.917439 -21.060894 76.047981 4.0
7.809309 43.175442 -58.378769 2.0
-1.139 26.686176 13.362375 0.0
-3.447454 32.30114 -35.988434 4.0
3.041267 44.307049 -72.972847 1.0
1.88115 45.61705 -67.031898 1.0
-9.199625 -9.099699 53.546024 4.0
6.86965 43.455399 -61.833 2.0
-46.150349 -42.076199 119.0426 4.0
64.301346 41.615028 11.64435 2.0
-22.040798 -8.266697 62.217609 4.0
3.148733 21.301399 -5.072534 4.0
-6.441192 20.094397 -3.971037 4.0
-2.51099 22.045166 36.111652 0.0
-57.134476 -52.240143 134.14279 4.0
-28.643002 47.226357 -102.04149 3.0
2.269217 32.171867 -12.488566 0.0
-1.367372 17.625145 3.194778 4.0
0.4483 57.970901 -140.5002 1.0
6.3179 22.519875 40.4743 0.0
-3.084238 30.224823 -31.272501 4.0
-53.644203 -52.3228 123.0605 4.0
3.8103 61.339928 -151.01205 1.0
25.067675 34.758812 -23.913733 2.0
23.462582 37.008156 -27.059704 2.0
-19.965549 -24.659451 73.612228 4.0
3.69685 34.308399 -35.624451 4.0
-16.525101 7.84105 40.1493 4.0
-31.39905 -22.354084 88.650116 4.0
-89.254547 -65.862297 158.3044 4.0
48.804825 41.103142 0.20944 2.0
-39.77327 -36.980835 104.24627 4.0
21.623821 42.824966 -27.789896 2.0
-23.061815 -7.095133 64.8172 4.0
3.942193 46.966095 -77.547844 1.0
-91.399353 -65.638741 160.13588 4.0
-16.054699 -14.149925 62.448174 4.0
-25.18836 -14.831688 72.141136 4.0
-61.105553 -56.408314 132.70462 4.0
-58.855175 -59.627998 127.72798 4.0
-0.35345 36.113426 -28.395176 4.0
-37.872581 -40.364285 103.84498 4.0
5.88085 22.720667 65.58313 0.0
0.543163 59.607864 -131.80214 1.0
65.587936 33.000244 7.642472 2.0
3.560116 46.267776 -78.497292 1.0
48.375305 44.603725 -0.28285 2.0
82.913673 33.065048 8.795575 2.0
61.86142 39.415516 8.954733 2.0
-5.031675 23.724976 -12.684999 4.0
-31.28302 -26.749834 88.672997 4.0
78.658371 39.461075 11.57855 2.0
-33.040993 -36.902626 98.460052 4.0
5.787653 23.258909 13.967101 0.0
-13.209249 12.357384 27.150217 4.0
3.280742 43.347786 -68.506622 1.0
53.369652 34.752701 3.149 2.0
4.73655 21.05835 13.715 0.0
-2.25615 37.216324 -49.635555 4.0
3.108575 38.280846 -49.405724 1.0
-93.776947 -66.633102 161.83389 4.0
-15.934116 7.608433 37.616455 4.0
-3.7367 56.325699 -119.4851 3.0
-20.53385 -26.365101 75.175201 4.0
1.8895 48.330563 -93.248772 1.0
-35.852276 -29.574051 97.907028 4.0
70.835663 35.264038 8.816915 2.0
-8.66575 13.7001 9.4257 4.0
59.647629 35.910007 6.226683 2.0
-83.927139 -63.038811 155.97256 4.0
-33.053112 -29.306 92.325836 4.0
-3.461375 9.557587 21.434837 4.0
18.160133 38.347363 -35.555424 2.0
41.231297 34.090725 -3.751107 2.0
1.08565 57.278053 -137.25266 1.0
-64.701324 -56.816124 139.87564 4.0
4.2748 55.717102 -113.09135 1.0
-52.647942 -49.48877 131.3582 4.0
-45.658195 -41.33403 117.48149 4.0
1.912325 23.617424 -0.256875 0.0
2.968133 61.821568 -159.54903 1.0
-7.614911 19.63579 -1.860845 4.0
-1.068025 50.917229 -122.31203 3.0
-68.694237 -63.224094 138.1657 4.0
53.45985 39.452999 3.5222 2.0
-52.720436 -51.765488 121.84555 4.0
6.4626 22.62925 51.792274 0.0
4.337083 32.789165 -30.792566 4.0
2.4813 27.81365 -12.53775 0.0
-14.43205 53.775799 -104.1348 3.0
7.1121 20.89245 32.717751 0.0
-0.280342 50.983665 -96.402618 1.0
-0.75145 57.976048 -136.99261 1.0
0.48214 47.195038 -90.389198 1.0
-50.800827 -53.021873 119.05099 4.0
3.584446 63.492088 -156.24274 1.0
28.331402 41.817024 -19.61985 2.0
3.0123 25.063776 -16.299049 4.0
-11.865576 -14.58168 60.241203 4.0
-2.67865 55.5937 -123.9278 3.0
-28.385296 47.638268 -97.520363 3.0
4.956213 19.677771 17.378025 0.0
-38.619202 -36.77095 102.87225 4.0
7.492112 21.865313 60.923676 0.0
-0.06745 11.448 16.078899 4.0
4.38715 25.898125 16.054188 0.0
11.865817 42.867489 -46.597851 2.0
-6.503529 15.097779 8.84431 4.0
-7.927183 7.869252 23.974762 4.0
-14.824491 1.074397 38.21278 4.0
-15.33285 9.117366 35.671101 4.0
4.090733 46.993767 -75.16198 1.0
-31.277092 45.252777 -103.74968 3.0
14.221954 39.373272 -42.724972 2.0
-12.05305 7.2655 26.1868 4.0
-49.925102 -46.020489 120.48338 4.0
2.662143 24.741394 29.929699 0.0
-11.271774 22.350225 10.7568 4.0
-56.552162 -51.809586 130.36899 4.0
82.010765 39.73354 11.694777 2.0
3.6891 26.73185 14.58075 0.0
4.071125 52.844124 -105.36565 1.0
-28.511108 47.465618 -100.60739 3.0
-22.135 -28.087225 80.157196 4.0
9.952775 19.385075 79.913872 0.0
6.676063 20.027987 26.179626 0.0
4.8989 41.90575 -63.643097 2.0
0.775352 65.592316 -163.63329 1.0
-0.556 33.132248 -37.901268 4.0
-8.912375 -6.1665 49.485252 4.0
-25.614351 -23.135799 80.004715 4.0
2.533675 38.844151 -52.676048 1.0
36.075775 38.114677 -13.201175 2.0
0.1896 40.923149 -48.770451 1.0
1.240182 27.066811 14.368471 0.0
20.191742 38.389076 -32.353714 2.0
0.808561 35.236633 -43.197243 4.0
-9.03595 21.940901 4.1309 4.0
-2.3814 57.122349 -122.19205 3.0
-15.671 -19.580875 67.280655 4.0
41.620617 40.914585 -5.641133 2.0
1.052117 17.570318 3.586917 4.0
-5.45925 33.314098 -17.5389 4.0
-29.270737 -13.953061 85.027054 4.0
-23.515963 45.21051 -109.37736 3.0
1.700933 32.878868 -15.057099 0.0
42.923767 34.458157 -3.318457 2.0
-2.79965 28.32395 -1.29395 0.0
47.523151 34.918766 -0.2784 2.0
1.627284 48.408833 -94.28653 1.0
4.083081 57.205467 -127.22337 1.0
-8.905445 20.106146 4.465479 4.0
0.781025 29.651199 -26.820351 4.0
2.959905 31.109879 -28.764994 4.0
-11.012855 -8.961554 53.664734 4.0
2.859217 48.764324 -80.429199 1.0
2.11395 27.1364 16.395767 0.0
-25.1378 -16.890251 72.797104 4.0
2.0453 46.24535 -67.714005 1.0
-54.857826 -50.982384 126.20288 4.0
1.896225 33.805161 -19.449001 0.0
-17.897402 47.636951 -108.85201 3.0
49.192738 42.218376 0.8776 2.0
-0.37855 41.947723 -68.593575 1.0
2.986509 46.372589 -81.419548 1.0
7.264861 19.487896 35.517647 0.0
96.17482 35.621048 8.46825 2.0
-7.4122 20.123749 0.07825 4.0
1.213779 64.880722 -158.80896 1.0
-38.689468 -43.598671 105.91954 4.0
-8.41145 14.3641 7.8382 4.0
-5.3804 32.364651 -19.109375 4.0
2.12705 17.773199 1.9868 4.0
-9.444467 14.635342 8.705983 4.0
2.531856 57.977486 -139.83569 1.0
-5.85365 12.049133 14.620153 4.0
1.65365 15.8523 6.0346 4.0
-26.2733 -12.5442 77.584549 4.0
63.955582 35.83107 7.778945 2.0
16.56605 42.705399 -35.8391 2.0
25.63435 39.923199 -25.2952 2.0
-16.025501 -4.721675 48.947052 4.0
-39.765327 -32.246891 107.94992 4.0
-23.84605 -4.54175 65.649796 4.0
-19.939348 -1.939658 53.614758 4.0
4.32675 29.7689 -23.9585 4.0
-49.250519 -55.045666 117.10686 4.0
1.032992 38.163391 -52.432568 1.0
0.564967 54.62077 -108.91276 1.0
-13.22555 7.3334 29.7593 4.0
-0.899983 32.125935 -13.138165 0.0
-1.652622 40.007015 -57.404675 1.0
72.000351 39.436001 11.8079 2.0
-0.911017 58.339951 -135.27972 1.0
13.3801 21.457275 103.56454 0.0
4.63765 63.197678 -162.9679 1.0
-44.728348 -48.470066 112.2864 4.0
2.236642 58.029259 -121.83952 1.0
-20.710999 48.580551 -103.09821 3.0
2.32175 21.223999 7.34875 0.0
-8.3265 2.1394 35.716549 4.0
-24.0326 -2.22837 63.829895 4.0
3.61465 50.313499 -96.8806 1.0
59.00388 35.252048 6.0269 2.0
39.271355 33.061455 -2.542032 2.0
-0.20125 30.7556 -30.277401 4.0
-2.692159 27.178926 5.358669 0.0
14.184221 20.874584 110.74692 0.0
-17.004601 -3.775375 46.78735 4.0
8.619484 23.729794 84.310349 0.0
-0.915804 42.779198 -70.331596 1.0
-13.629301 -2.78155 45.279751 4.0
-21.71245 4.6546 50.659801 4.0
-24.714975 -6.3777 71.368073 4.0
4.590612 23.353539 59.698063 0.0
1.802763 22.718571 62.084316 0.0
-45.058098 -40.656548 118.7702 4.0
85.945229 34.936401 8.806541 2.0
3.668925 45.7939 -71.311752 1.0
5.638581 23.918751 23.182774 0.0
7.35165 18.044901 34.855202 0.0
-20.749517 -8.934234 59.092163 4.0
-0.885617 57.105633 -125.47413 1.0
-74.430145 -61.860401 145.50723 4.0
-25.726685 -23.978149 81.361053 4.0
2.644383 54.373234 -103.88686 1.0
-13.471933 12.116875 30.533384 4.0
-1.206275 35.185799 -45.668472 4.0
-9.24545 15.2758 7.0459 4.0
42.543114 38.883049 -5.6364 2.0
58.944126 30.998249 6.590925 2.0
1.212563 60.659805 -135.74426 1.0
-42.087387 -41.145622 107.87814 4.0
2.571825 26.343449 -18.758224 4.0
-0.405783 25.620268 21.774368 0.0
1.966513 24.024876 42.130333 0.0
39.129486 40.408127 -8.2185 2.0
0.161381 50.855942 -92.973495 1.0
-2.264906 30.638624 -31.980165 4.0
0.779627 53.380554 -102.02623 1.0
-39.251778 -31.627251 106.50668 4.0
-10.601151 56.1311 -109.01815 3.0
0.894369 62.510509 -146.47318 1.0
-24.118252 -18.857151 73.942451 4.0
32.330101 32.306049 -12.4382 2.0
7.08075 41.266026 -58.368973 2.0
8.375118 21.411844 70.58252 0.0
-21.89316 -27.731205 79.352783 4.0
3.60775 52.015923 -97.1651 1.0
-15.196081 -10.4005 56.696869 4.0
-18.713799 47.922852 -107.67952 3.0
-1.60935 22.939426 -9.831526 4.0
3.76355 54.6642 -120.202 1.0
-43.415649 -44.888401 110.1471 4.0
2.883075 53.261673 -99.614456 1.0
-8.980249 25.800224 0.144625 4.0
4.388481 25.50725 19.211893 0.0
-8.190599 6.878665 25.603315 4.0
33.003677 42.835167 -12.073025 2.0
-4.30525 24.094635 15.698033 0.0
0.19385 22.7041 53.141102 0.0
0.7707 61.906475 -164.51053 1.0
-1.395572 40.108833 -42.750973 4.0
2.985229 24.754004 32.579472 0.0
19.770037 42.536613 -30.572342 2.0
-30.658489 -21.476435 87.018509 4.0
3.5507 46.903126 -61.950577 2.0
-0.790431 16.559769 5.45098 4.0
-3.694111 23.661736 21.142597 0.0
8.14125 40.9226 -55.67297 2.0
3.731574 58.581715 -126.95366 1.0
83.535049 32.233574 9.1357 2.0
-2.863895 26.601894 7.94442 0.0
45.361168 36.163704 -3.047767 2.0
-66.316147 -61.454475 136.04765 4.0
3.977438 23.355865 46.622288 0.0
94.340279 38.623955 7.916455 2.0
5.450037 24.379473 20.234747 0.0
-38.950699 -24.57445 100.55708 4.0
7.519992 18.736496 38.001419 0.0
3.031262 30.775063 -18.096012 0.0
3.03365 62.076801 -165.0287 1.0
4.087275 64.103523 -161.37468 1.0
-27.301975 -25.567524 84.319427 4.0
-17.682049 3.5009 43.873352 4.0
-6.13845 5.148725 29.847675 4.0
36.951874 37.975525 -12.034579 2.0
-98.607071 -64.225891 164.38074 4.0
-28.409851 -24.547867 83.876602 4.0
-1.557404 23.931978 -12.492554 4.0
0.11575 61.723724 -144.31113 1.0
-28.218534 -22.61202 81.324394 4.0
0.88415 24.7311 -4.39185 0.0
-12.818794 2.622711 34.567356 4.0
3.976488 63.565186 -159.01718 1.0
6.832223 22.228466 57.431721 0.0
-1.22055 38.235733 -55.130138 1.0
-1.59445 59.402699 -123.5427 1.0
3.752905 36.956543 -42.903397 4.0
-11.60814 13.524257 20.529184 4.0
-20.406624 45.555119 -110.07781 3.0
-30.198189 -23.241634 85.425903 4.0
5.653534 18.607492 23.652075 0.0
1.614535 30.974117 -6.124987 0.0
1.88665 47.823654 -91.191025 1.0
-25.077761 -24.779358 81.009964 4.0
-0.3364 58.378479 -125.45689 1.0
4.07315 59.6208 -133.16266 1.0
2.36415 44.681801 -64.372704 1.0
7.649908 40.96051 -56.808598 2.0
-7.84129 14.66 8.628503 4.0
32.718925 44.030918 -10.072406 2.0
-52.237701 -48.2621 125.2537 4.0
-41.250984 -46.345123 108.38692 4.0
25.695791 42.075325 -23.251959 2.0
6.875987 44.943314 -54.142986 2.0
-63.827477 -56.230804 139.79938 4.0
-14.593175 -4.3772 47.774097 4.0
-57.573219 -58.967209 126.58119 4.0
7.011487 23.759701 80.008713 0.0
-5.934 -3.3917 45.40733 4.0
3.413308 47.381748 -84.169159 1.0
-8.227842 26.779884 -4.158767 4.0
-81.358871 -62.888695 152.76547 4.0
8.812113 40.430977 -53.979012 2.0
-25.034508 -26.86504 83.456345 4.0
-8.604485 55.510483 -111.75818 3.0
74.040558 37.594528 9.924307 2.0
3.974963 63.375763 -161.86298 1.0
-47.759995 -46.670227 115.73579 4.0
-90.741714 -62.918678 161.18449 4.0
-2.245 15.6306 6.64875 4.0
1.963178 54.701511 -105.76895 1.0
-2.856125 34.88131 -39.189384 4.0
-40.296589 -39.744095 105.55055 4.0
3.83795 48.10215 -83.678345 1.0
-19.053665 -4.619158 52.737755 4.0
3.188217 26.687 19.049683 0.0
46.016003 39.468334 -2.491425 2.0
-12.68675 11.2539 25.277599 4.0
1.864171 26.366329 19.172564 0.0
40.340847 33.813927 -3.7742 2.0
-28.9055 45.29895 -107.0515 3.0
2.8594 60.377144 -151.98894 1.0
-17.566444 3.112719 44.628784 4.0
-64.803947 -61.814701 134.0251 4.0
-55.868099 -57.152447 124.92332 4.0
4.59135 27.076351 2.281725 0.0
-7.989243 -1.70326 42.475288 4.0
-57.992241 -55.406891 128.14326 4.0
22.910049 41.708847 -27.52985 2.0
8.770975 18.6369 55.889225 0.0
9.209263 40.369686 -53.07254 2.0
-81.947151 -63.0238 157.99409 4.0
36.464066 34.002319 -8.021512 2.0
-6.80925 26.4529 -9.0257 4.0
-12.130325 -7.4249 52.186501 4.0
2.614342 57.003464 -116.4444 1.0
-3.16945 25.175501 14.9531 0.0
37.344429 42.218639 -8.607333 2.0
0.13125 27.261398 12.7008 0.0
3.52545 40.942665 -54.446785 1.0
-6.11955 19.108749 -2.6635 4.0
-6.659947 8.489426 22.450834 4.0
37.292912 39.604202 -10.504525 2.0
3.75885 57.6577 -133.754 1.0
-12.217725 17.604507 19.252666 4.0
6.13035 43.883797 -63.3867 2.0
-31.332401 -15.214275 88.02182 4.0
3.748825 56.229973 -115.06898 1.0
-4.979538 27.84095 -18.338442 4.0
-38.414082 -39.361217 103.67104 4.0
-3.95045 53.963902 -120.8186 3.0
-0.072175 29.014999 3.375475 0.0
18.290276 43.192577 -31.36731 2.0
30.320162 36.202251 -18.025499 2.0
-64.29055 -57.762352 135.79355 4.0
-48.385578 -44.547958 117.78149 4.0
1.848825 51.413948 -107.13885 1.0
6.21055 22.314651 22.038338 0.0
16.633038 39.037926 -38.677727 2.0
-16.273563 -12.191231 59.810997 4.0
-9.39745 19.974899 7.3795 4.0
-54.033295 -57.217709 122.31744 4.0
-7.536644 25.092443 -4.678456 4.0
2.252205 45.125374 -65.265335 1.0
5.915287 41.087547 -61.045277 2.0
1.229425 54.130562 -104.0949 1.0
-13.802334 13.594167 31.431459 4.0
4.25235 45.662498 -69.157799 2.0
-36.13969 -21.861603 95.282722 4.0
-93.240944 -64.16552 161.57233 4.0
38.972984 44.56295 -5.671279 2.0
32.285851 37.905167 -16.63369 2.0
-22.60788 -15.100496 67.978767 4.0
34.394882 36.634983 -13.1062 2.0
-29.953415 -35.267834 95.981544 4.0
-34.871082 -25.387056 95.846321 4.0
37.319565 36.222412 -9.743695 2.0
3.67605 22.9596 -9.8522 4.0
-1.363658 30.425558 -30.192001 4.0
8.520746 43.649254 -56.817951 2.0
-6.49125 18.153301 0.12665 4.0
1.239969 65.133331 -160.50299 1.0
4.28785 53.026798 -100.5868 1.0
0.589992 32.849632 -14.8736 0.0
4.099477 27.053425 9.660974 0.0
-6.430517 6.045366 27.799276 4.0
53.2831 29.124298 6.20425 2.0
-3.70745 19.748951 -2.8962 4.0
-22.280464 -5.763094 62.005478 4.0
-12.937109 8.615066 27.20435 4.0
-7.117517 15.46395 7.283783 4.0
-3.10415 58.253799 -119.3653 3.0
-1.63285 35.6814 -32.513599 4.0
-5.686 29.477901 -15.11965 4.0
-0.63775 44.695202 -71.849297 1.0
1.41775 51.822102 -91.946701 1.0
-62.082912 -61.773251 131.01314 4.0
-23.209633 -24.656834 78.406921 4.0
9.16235 45.545399 -46.4711 2.0
-81.392273 -62.5844 154.31931 4.0
-42.001652 -47.220501 109.1864 4.0
1.9114 64.456902 -155.69855 1.0
-34.000885 -26.053362 94.342636 4.0
-19.08577 -1.645624 51.285477 4.0
-19.756367 -10.363653 59.425182 4.0
-4.06655 33.492199 -25.621901 4.0
11.4242 43.687828 -44.30555 2.0
-4.702287 31.660126 -22.042013 4.0
4.59975 25.193174 25.828751 0.0
2.616825 19.631775 12.455725 0.0
-19.065325 7.154075 44.760075 4.0
-17.895216 -10.864567 59.04388 4.0
-85.363647 -65.994949 154.84039 4.0
3.431306 22.001385 7.2197 0.0
-1.839692 8.298525 27.467533 4.0
62.873672 41.609524 10.781725 2.0
97.663948 40.427765 7.456219 2.0
-0.45425 44.810848 -70.3657 1.0
2.185962 29.968834 -0.518933 0.0
0.1304 48.103401 -94.0952 1.0
-11.68575 17.8351 17.837799 4.0
-9.750217 6.817815 25.981655 4.0
64.022942 32.81599 7.36276 2.0
-37.405403 -22.657551 97.200897 4.0
4.061237 51.112301 -91.942017 1.0
0.724981 30.22756 -2.184997 0.0
-25.434715 -8.845467 77.883064 4.0
-14.106096 3.27694 34.474518 4.0
-19.741188 -26.775925 74.328674 4.0
-45.996094 -43.61586 113.27916 4.0
-25.007025 -7.113183 74.376648 4.0
0.893872 27.627609 10.950677 0.0
-36.225212 -40.040031 102.36639 4.0
2.203589 42.526558 -68.820122 1.0
19.236149 40.641151 -36.724052 2.0
-29.915199 -39.370285 99.111786 4.0
-9.080088 23.258587 1.581088 4.0
0.054408 33.697044 -18.639641 0.0
-3.8826 27.356949 -22.119099 4.0
38.119949 36.875702 -9.3496 2.0
-1.085142 63.519646 -165.38156 1.0
-80.157822 -62.422974 155.13313 4.0
1.7122 30.642599 -4.38165 0.0
-8.2521 12.118157 15.123271 4.0
3.185125 30.143452 -17.255724 0.0
-31.215826 -24.367199 88.05722 4.0
-12.667562 10.139077 26.561455 4.0
-51.311447 -48.13525 121.26185 4.0
-3.827788 32.037369 -26.841064 4.0
6.764438 21.754749 25.432762 0.0
-54.709198 -51.267551 135.72435 4.0
-47.207001 -50.587074 115.03845 4.0
6.182772 22.724859 35.605988 0.0
-3.921433 25.806656 2.846693 0.0
2.75025 50.459999 -85.035103 1.0
65.377518 40.177017 10.765348 2.0
-1.8133 39.017212 -44.030094 4.0
-0.26885 44.317398 -65.453369 1.0
-15.245712 -7.177069 52.289482 4.0
-26.109102 -13.8288 75.382484 4.0
0.31445 60.575699 -155.7326 1.0
-17.24962 50.293652 -102.99072 3.0
-34.788185 -41.074814 102.33942 4.0
-1.235558 14.908642 8.950192 4.0
-71.537567 -62.119057 141.64238 4.0
4.590786 23.004021 52.334732 0.0
78.383469 38.207394 10.452559 2.0
14.03945 41.8909 -46.454102 2.0
1.0727 58.821724 -146.24258 1.0
4.98905 23.909176 32.544899 0.0
-1.215592 23.248901 33.090137 0.0
-9.256327 -7.562588 51.641369 4.0
58.020576 40.627472 8.221825 2.0
-2.281581 28.600357 -0.416799 0.0
2.010375 23.88335 -12.55735 4.0
-18.451483 -5.93745 51.994312 4.0
-5.6826 -0.32675 41.155899 4.0
-27.863823 -26.86517 86.183945 4.0
-38.797226 -32.627823 104.42215 4.0
-95.25956 -65.920937 162.39044 4.0
-0.135077 26.204805 -18.321236 4.0
-12.097275 18.488224 19.372225 4.0
91.016769 37.092003 8.410074 2.0
3.60485 28.919374 0.1267 0.0
-15.766839 -11.60454 58.679909 4.0
-2.571317 26.572914 -19.957436 4.0
-0.397325 12.355525 14.635275 4.0
60.686394 30.242067 7.247508 2.0
0.178 51.282303 -107.51015 1.0
40.347782 34.606598 -5.341567 2.0
68.059921 34.828445 8.259535 2.0
14.47675 20.934601 114.2421 0.0
-4.768304 17.045887 3.430362 4.0
56.912251 42.369026 9.143108 2.0
-1.96305 16.01 5.8195 4.0
32.874496 41.280655 -14.257158 2.0
2.41965 36.510399 -30.562099 4.0
-40.095524 -29.267838 108.27612 4.0
-2.974725 37.048187 -32.006363 4.0
-49.222198 -51.23053 117.16875 4.0
-0.9558 41.233269 -49.640427 1.0
-16.226418 47.635048 -110.05203 3.0
-5.597792 25.388916 -15.337626 4.0
-2.6895 22.863701 31.3925 0.0
61.824886 30.341101 7.356733 2.0
10.967313 23.493406 90.431641 0.0
3.314508 30.721279 -9.61968 0.0
-40.237015 -33.307533 108.75497 4.0
-15.817284 -22.0707 68.508331 4.0
5.743712 23.569462 16.237911 0.0
-44.464451 -39.79826 120.091 4.0
-68.966949 -61.905251 139.25775 4.0
-15.901256 -11.047658 58.021881 4.0
6.6516 22.5921 55.7682 0.0
-5.334137 25.394913 -18.0037 4.0
-25.84367 -14.505001 74.397064 4.0
2.252463 37.343147 -48.200272 1.0
15.614284 35.798203 -37.288643 2.0
-99.123131 -65.546112 164.52458 4.0
-30.377026 -26.906975 88.029022 4.0
2.600775 57.29755 -118.87863 1.0
2.258325 19.871925 -2.562775 4.0
-1.07795 57.948898 -131.9543 1.0
2.857237 22.18145 5.56985 0.0
38.462952 41.09285 -8.37245 2.0
3.989142 19.407951 16.2024 0.0
1.288281 23.75979 40.724522 0.0
-49.93959 -46.331718 119.31059 4.0
-76.513184 -62.578487 147.81517 4.0
8.918751 18.65835 75.37365 0.0
3.419506 26.056412 -4.096406 0.0
7.04465 18.019051 31.7257 0.0
-4.92225 23.939699 7.6362 0.0
2.21365 30.786501 -23.186899 4.0
-2.79125 51.748901 -120.5761 3.0
34.138252 34.324085 -11.524754 2.0
-55.82428 -51.231285 132.435 4.0
0.81805 58.185776 -125.86247 1.0
-15.338349 8.837268 36.744236 4.0
12.104361 23.29319 94.940552 0.0
42.915451 37.100388 -5.13575 2.0
0.527775 16.033016 6.33865 4.0
9.2541 44.656475 -49.191673 2.0
0.85935 59.209 -148.39731 1.0
54.777332 32.80267 4.660539 2.0
39.529625 43.971214 -5.958525 2.0
-17.571012 -23.236601 70.17704 4.0
-20.742943 -3.463293 56.538982 4.0
12.212366 41.61475 -48.563034 2.0
-14.622251 -9.322675 55.659424 4.0
-5.37355 52.355797 -118.4507 3.0
-47.99575 -44.276901 116.9464 4.0
-53.268013 -53.731422 122.18474 4.0
-46.821701 -43.9076 114.56575 4.0
14.499516 43.839966 -35.727936 2.0
-4.1181 35.672653 -23.76535 4.0
12.902658 21.920485 99.195297 0.0
65.586609 41.502041 11.969335 2.0
-23.137051 -8.3631 65.131866 4.0
78.988487 34.306862 8.829087 2.0
-21.872316 -3.000456 59.2864 4.0
3.014995 26.865978 16.063385 0.0
24.1793 40.351585 -27.121075 2.0
-0.12427 17.093142 4.28456 4.0
-20.770849 2.1825 51.658298 4.0
-71.620285 -59.995598 145.63557 4.0
-20.16905 -16.1756 67.656898 4.0
-18.785017 -11.389929 60.390026 4.0
16.648977 43.272419 -34.145905 2.0
-42.149223 -46.368473 109.35455 4.0
-0.20405 41.333199 -43.936001 4.0
8.94355 18.427616 64.260803 0.0
11.122683 40.587364 -49.605083 2.0
-7.1056 11.539608 16.14555 4.0
-49.929008 -49.56934 118.43416 4.0
-1.513319 30.150406 -5.701222 0.0
-13.160975 -7.617763 51.897064 4.0
-0.17045 35.237961 -44.240425 4.0
-5.648917 24.013416 -14.8466 4.0
3.315294 25.687456 23.353464 0.0
57.205051 37.664299 5.5097 2.0
27.00132 33.324005 -21.118187 2.0
-1.080097 24.985703 22.326502 0.0
8.936375 18.999401 72.34053 0.0
54.013496 42.164948 5.793005 2.0
-1.603317 33.86253 -23.334023 4.0
60.400326 40.946953 9.56115 2.0
2.660863 27.637371 11.758984 0.0
-51.701561 -52.419121 120.285 4.0
-45.740101 -48.871254 113.23645 4.0
10.54045 44.7784 -45.155602 2.0
-24.070181 -0.948727 62.441151 4.0
1.648009 28.872936 4.995532 0.0
-76.983475 -61.907852 152.95058 4.0
6.812887 20.347208 27.767736 0.0
7.02485 21.751301 32.557201 0.0
-18.014339 -14.542386 63.764622 4.0
-66.326172 -57.500393 142.29655 4.0
-42.905701 -38.854652 108.1421 4.0
8.5298 19.259701 53.071198 0.0
-69.782509 -59.383591 148.25983 4.0
3.12895 23.463074 51.292976 0.0
-0.12895 52.008999 -99.057899 1.0
-1.71175 35.8237 -48.693199 4.0
-20.79225 -0.168 54.339104 4.0
-0.4768 55.047249 -117.8274 1.0
-35.890739 -35.610729 99.556107 4.0
5.882447 22.58975 54.614033 0.0
-2.0633 38.339149 -42.862198 4.0
27.420977 40.789906 -21.889069 2.0
0.923025 31.631411 -9.210499 0.0
0.867521 43.999908 -75.695618 1.0
-10.008625 -12.480525 57.583923 4.0
4.60685 26.351768 11.182099 0.0
-47.720684 -43.97522 121.87138 4.0
-40.044106 -45.335182 107.29809 4.0
2.366472 62.127766 -163.40715 1.0
-24.527653 -6.401334 69.938049 4.0
-41.133057 -48.494732 108.90211 4.0
-7.465675 5.343813 28.837074 4.0
1.646492 42.780125 -55.332417 1.0
-50.878288 -47.074989 122.63959 4.0
6.50475 19.783388 25.126463 0.0
-20.08605 -27.470301 76.766403 4.0
3.763975 25.015625 29.946026 0.0
0.62715 23.531401 -11.7676 4.0
-20.726151 -1.267488 55.139351 4.0
-68.699356 -59.013237 148.48788 4.0
-2.228733 26.215599 -18.752632 4.0
-90.057312 -64.577927 159.21944 4.0
-19.321426 0.370475 50.3316 4.0
-23.530622 -29.15818 83.780899 4.0
-25.161999 -33.6954 92.696045 4.0
0.12805 52.4888 -100.4449 1.0
4.24365 58.759102 -129.3076 1.0
-19.110693 -20.892666 70.176224 4.0
-11.8323 9.644225 23.848324 4.0
4.027892 27.760391 5.749392 0.0
-65.364639 -58.639503 136.97452 4.0
-43.529053 -48.798725 111.1073 4.0
-33.478828 -22.56559 92.861328 4.0
59.89695 38.026703 6.9702 2.0
-2.203812 37.981129 -41.197742 4.0
-55.095924 -50.679649 127.57235 4.0
-16.611851 -3.03085 45.310898 4.0
3.684025 62.149849 -151.61929 1.0
-27.371225 -15.652945 79.262589 4.0
-20.786079 -2.628229 56.158989 4.0
-11.676425 11.1127 22.562876 4.0
-0.58285 21.4701 -6.6817 4.0
8.68935 43.659901 -55.503952 2.0
46.770191 43.923683 -1.815247 2.0
10.12605 23.085526 86.620773 0.0
8.47165 20.468964 69.390839 0.0
-37.545326 -43.581951 105.32072 4.0
-4.880092 18.117008 1.016867 4.0
-28.981417 46.592018 -103.80489 3.0
33.355782 37.019718 -14.548676 2.0
0.23915 22.760201 54.0033 0.0
25.970009 33.46093 -22.576492 2.0
3.791763 38.573357 -47.479294 1.0
-10.48565 17.5413 13.4083 4.0
-4.294928 29.605003 -26.108225 4.0
-19.94425 46.163849 -109.73045 3.0
-6.429372 9.708856 19.599825 4.0
1.02015 56.678299 -133.8569 1.0
6.490383 42.751961 -60.760662 2.0
65.831848 35.913288 8.2513 2.0
-20.290649 2.8475 50.306499 4.0
-17.336994 -7.394211 53.750385 4.0
-8.928471 54.758987 -112.05614 3.0
-25.899151 -31.209801 90.64135 4.0
2.6127 20.6152 -4.706425 4.0
-20.192781 -14.173786 64.980133 4.0
32.578003 33.760551 -13.707959 2.0
-0.32845 48.736301 -88.381302 1.0
-18.62385 -13.204 63.0009 4.0
4.814371 24.741045 23.860083 0.0
-9.37985 24.87565 1.1491 4.0
3.394563 46.967541 -82.379906 1.0
-4.83425 30.607599 -19.0695 4.0
-100.24675 -65.899101 166.02589 4.0
-2.201874 31.266953 -14.143444 0.0
35.530472 32.774609 -7.505393 2.0
-0.971108 33.377323 -18.710848 4.0
-0.61005 57.13905 -133.5522 1.0
-7.511592 -3.194679 44.876606 4.0
-10.751358 22.16968 8.95538 4.0
-13.7988 48.782837 -110.4379 3.0
-30.34865 45.770271 -104.0072 3.0
-28.125151 -17.636475 80.856705 4.0
-3.942082 31.011715 -28.387014 4.0
-49.243969 -45.712341 118.18776 4.0
5.65315 24.663124 15.217401 0.0
-47.455673 -53.256493 115.10259 4.0
-15.3849 6.152425 36.0042 4.0
0.8512 45.633698 -67.910156 1.0
71.280548 31.154037 8.602862 2.0
5.8693 42.816284 -62.349152 2.0
15.112288 20.789898 117.03262 0.0
-6.811401 52.961208 -116.7055 3.0
-60.116329 -59.56142 128.98392 4.0
-13.09965 -12.54755 59.208702 4.0
84.906464 39.651249 11.019283 2.0
-8.526649 15.19865 7.85735 4.0
-1.5606 56.841892 -124.0527 1.0
46.390617 37.659023 -2.547497 2.0
-44.862751 -43.068897 111.70373 4.0
-78.719788 -63.071117 156.34009 4.0
4.424683 21.145451 12.942284 0.0
3.892775 25.933376 18.608763 0.0
-2.589789 24.785797 -14.53159 4.0
-0.8335 58.854599 -141.49844 1.0
2.6036 65.700455 -160.0607 1.0
-0.14855 46.161201 -74.096802 1.0
10.619714 23.325577 88.695618 0.0
2.321564 43.392872 -58.937115 1.0
-0.465682 52.964211 -109.37944 1.0
-4.756242 30.225897 -21.181938 4.0
-26.837189 45.616928 -107.27207 3.0
1.205317 58.589752 -145.07185 1.0
2.53265 26.08305 20.9132 0.0
-38.898792 -30.217434 105.54858 4.0
71.578957 34.831413 8.809392 2.0
25.643007 41.211647 -24.046669 2.0
7.50015 17.849899 36.438599 0.0
-7.703625 -7.681058 51.202541 4.0
-12.569882 0.352683 38.591198 4.0
3.38655 24.612175 33.467323 0.0
23.799652 32.91235 -24.961725 2.0
74.259842 38.65012 10.972217 2.0
-0.2198 50.323448 -102.1418 1.0
-2.902067 27.373549 3.413756 0.0
-28.142384 -19.087315 80.605316 4.0
-21.195633 49.541534 -98.609222 3.0
13.253875 22.4426 101.69415 0.0
2.8209 42.969749 -66.454697 1.0
43.095551 37.585297 -5.9793 2.0
-77.503952 -62.455902 154.50876 4.0
-23.722099 -27.904099 82.680649 4.0
-36.830353 -37.988152 101.8136 4.0
3.02059 40.663311 -57.67054 1.0
-20.439316 -5.066383 56.614731 4.0
-6.10615 9.48425 20.967449 4.0
3.328225 60.651176 -139.61481 1.0
-4.258875 50.901924 -118.84865 3.0
29.260242 43.102455 -17.196058 2.0
2.13245 36.123001 -28.3193 4.0
29.345751 40.643997 -19.244926 2.0
-38.007626 -34.037651 101.21928 4.0
-4.58605 25.123301 -18.389999 4.0
-22.97117 48.801605 -98.552254 3.0
34.0061 42.405834 -11.926825 2.0
-37.367813 -27.473789 100.883 4.0
-28.654869 -32.616875 92.996185 4.0
-2.4711 36.655201 -39.925049 4.0
-22.8563 -19.128799 73.361221 4.0
-50.349667 -47.437286 119.57793 4.0
-11.58539 0.1928 38.675919 4.0
-17.665054 -12.003848 60.188751 4.0
-0.6485 26.661049 -19.77755 4.0
-1.188008 27.17186 10.270299 0.0
-86.088684 -62.7523 158.84038 4.0
-24.776613 -13.065448 71.256332 4.0
-13.214566 5.69095 30.185699 4.0
4.118895 51.400299 -93.775627 1.0
21.560898 36.956444 -29.539497 2.0
76.137161 30.364376 9.450363 2.0
-3.8923 25.472965 7.239054 0.0
-11.898084 -0.2413 40.315765 4.0
-4.452858 28.207016 -25.016701 4.0
-21.742727 -29.427002 81.197205 4.0
-48.57095 -45.923698 126.8153 4.0
-21.052711 -7.387746 59.273537 4.0
28.14185 32.738453 -19.388832 2.0
40.791668 44.615227 -5.076429 2.0
16.009987 37.890404 -38.530838 2.0
-41.746399 -34.064205 115.99139 4.0
-12.808994 17.25351 24.348742 4.0
-1.503177 34.369328 -25.081177 4.0
-36.903732 -29.998817 100.38551 4.0
-10.935483 21.514435 10.4944 4.0
-11.394408 9.301259 22.254766 4.0
34.111111 39.703548 -13.960617 2.0
-71.310722 -64.25489 140.85474 4.0
-0.775117 22.101776 -8.287216 4.0
-4.62909 23.808161 12.473966 0.0
-57.185215 -55.6889 126.70883 4.0
-1.6022 23.470299 -11.13585 4.0
-1.248049 12.090812 15.192714 4.0
-4.37958 54.478672 -120.21358 3.0
-34.425102 -35.819458 98.821846 4.0
-6.212075 23.65921 -9.645375 4.0
3.598893 28.187077 5.086547 0.0
15.53005 43.7626 -34.9664 2.0
0.214225 49.698349 -88.024796 1.0
13.068504 42.496063 -45.33651 2.0
-12.745937 47.124435 -112.90228 3.0
5.900122 23.321058 27.799501 0.0
-92.688354 -65.705101 161.07513 4.0
-21.901865 -7.140604 61.445633 4.0
-4.39565 29.139 -22.653999 4.0
58.881401 31.987375 6.283988 2.0
-1.694744 29.34774 -1.977158 0.0
-14.982826 48.803246 -109.38735 3.0
-23.80765 -14.1856 68.176697 4.0
6.380642 21.798117 21.153198 0.0
26.1383 39.186203 -25.543274 2.0
-20.258476 -3.019381 55.030411 4.0
-33.3894 -30.260031 93.644936 4.0
-8.995834 5.397018 28.597965 4.0
-14.739113 9.985371 33.826752 4.0
-2.59015 20.560801 -4.9485 4.0
-3.256545 57.587677 -117.74714 3.0
-4.4826 55.495201 -119.026 3.0
-9.993128 -2.85109 44.241703 4.0
-40.635544 -36.612415 104.62489 4.0
3.06255 28.0578 11.0376 0.0
7.1485 21.096001 31.05525 0.0
-27.676075 -19.751625 79.179474 4.0
-0.668437 45.011177 -76.017952 1.0
25.046539 33.742043 -23.684177 2.0
70.701248 39.776001 11.9883 2.0
4.2858 37.014648 -42.151878 4.0
-50.576202 -46.712128 121.659 4.0
6.019892 20.453367 21.508118 0.0
-15.108 -2.7896 45.206902 4.0
1.5236 14.878176 10.0175 4.0
-6.591083 22.332167 -8.402278 4.0
-25.702042 48.027946 -98.581009 3.0
-12.29015 11.409275 23.334375 4.0
-4.0133 26.619875 -20.973801 4.0
-42.912567 -49.609585 110.66275 4.0
-53.716621 -51.636147 123.52274 4.0
2.300683 61.643902 -161.0818 1.0
-5.861473 8.774867 22.588377 4.0
8.861701 41.638252 -54.849228 2.0
4.470516 25.006725 3.629808 0.0
-53.196602 -50.553452 134.36835 4.0
-1.51175 22.95215 42.72435 0.0
-2.730283 6.440152 30.934887 4.0
1.16915 29.101376 -19.053675 4.0
-0.2647 47.264252 -89.07505 1.0
-7.569422 17.239578 2.965378 4.0
-0.89815 62.725647 -165.6964 1.0
3.48525 60.866249 -140.87149 1.0
-7.13235 7.149 25.790501 4.0
-26.720551 -35.440598 95.244797 4.0
75.998978 32.915764 8.997031 2.0
2.74785 42.701599 -69.945999 1.0
-5.385013 4.71246 31.355127 4.0
-2.63735 5.3058 32.0877 4.0
-5.235367 26.821949 -15.914358 4.0
-8.7013 52.984467 -113.68068 3.0
-8.908328 9.119428 21.363297 4.0
-0.57895 56.2421 -129.2016 1.0
2.271556 47.558819 -88.650902 1.0
-3.720589 10.990205 16.8724 4.0
5.78195 24.4086 16.9107 0.0
-26.720329 -14.252909 77.927078 4.0
-16.988846 3.436462 42.927547 4.0
0.194504 62.93124 -150.69099 1.0
-97.396866 -65.592522 163.58102 4.0
0.490342 54.062771 -106.2884 1.0
2.19115 26.922451 17.802725 0.0
24.411142 38.889732 -27.796158 2.0
-63.097775 -55.516922 142.37625 4.0
-12.791786 14.565333 24.509695 4.0
-3.69115 28.009501 -25.757999 4.0
2.22135 33.566299 -36.45475 4.0
3.910681 53.491032 -110.78333 1.0
-23.654415 -12.085501 67.623299 4.0
2.14125 33.4468 -16.6789 0.0
1.6834 49.892052 -100.71616 1.0
-12.805025 11.3649 26.393076 4.0
-46.324368 -50.578018 114.00008 4.0
-38.208218 -47.571968 106.98743 4.0
-0.41335 23.567884 37.269611 0.0
-0.221917 41.461723 -66.667442 1.0
2.578178 40.974377 -60.118179 1.0
14.202042 42.429424 -41.816311 2.0
48.802505 42.945499 0.259354 2.0
18.37455 40.390099 -37.752022 2.0
3.83567 39.691399 -49.953991 1.0
0.192556 32.190475 -12.192055 0.0
-4.698691 28.605467 -21.264091 4.0
46.334717 41.231224 -2.007446 2.0
-0.451125 36.587509 -49.519455 1.0
10.5653 19.43795 89.082596 0.0
3.399102 22.971601 67.287407 0.0
74.862198 29.5441 10.09105 2.0
-71.276283 -63.372551 141.13422 4.0
-17.365549 49.311199 -104.6 3.0
-29.197144 -28.539724 89.040672 4.0
-25.130501 -19.212799 75.178497 4.0
2.23335 37.7682 -40.002899 4.0
5.739238 23.124851 63.828274 0.0
3.404306 52.89502 -98.984688 1.0
18.416725 37.328186 -34.141094 2.0
0.558696 49.607746 -85.579308 1.0
7.852215 20.093323 46.030594 0.0
-2.02965 34.4865 -44.137699 4.0
-23.936432 -29.916468 85.179466 4.0
-9.267736 1.612183 35.854916 4.0
0.152875 61.150177 -140.94376 1.0
56.96558 36.087448 4.92982 2.0
-11.61185 15.988287 17.536949 4.0
2.574217 54.817348 -121.51795 1.0
12.112203 20.115438 99.23716 0.0
1.880238 66.367722 -165.35397 1.0
-7.01525 17.872101 -0.6102 4.0
-0.508836 24.648243 26.376251 0.0
3.05865 48.179699 -63.846699 1.0
-13.287084 12.173889 28.641394 4.0
54.218552 43.327976 6.801425 2.0
-20.875465 47.987549 -106.10898 3.0
-0.746138 44.615906 -74.016182 1.0
-81.592728 -65.579628 150.97644 4.0
-0.88715 61.901276 -153.59839 1.0
27.45895 39.628025 -22.857525 2.0
-1.28795 13.17145 12.068 4.0
3.627917 29.070732 -12.073816 0.0
3.65112 62.133942 -156.73415 1.0
34.535957 35.807499 -12.513008 2.0
4.87875 25.7272 5.0717 0.0
-13.9659 11.380276 32.812023 4.0
-84.265648 -66.666298 153.7574 4.0
-18.375183 -1.334483 49.307083 4.0
-7.931275 18.416351 2.66125 4.0
1.203082 24.718277 29.247047 0.0
-2.55015 23.823299 25.461 0.0
-5.006876 5.391913 30.297754 4.0
-0.362317 46.870197 -79.657234 1.0
8.232917 38.617016 -53.348694 2.0
-3.19905 3.6015 35.378201 4.0
-0.44955 11.2683 17.428499 4.0
-25.798141 -25.415726 82.410492 4.0
-4.380223 12.794921 13.182746 4.0
-11.49725 17.998325 15.616892 4.0
-60.091484 -53.935966 138.57727 4.0
-36.419262 -30.748375 98.87825 4.0
-22.185843 -26.808792 78.586624 4.0
-21.148201 -11.342655 61.78524 4.0
0.237411 51.348091 -94.704079 1.0
-22.88805 -1.6066 59.818298 4.0
-7.57945 50.695702 -115.7389 3.0
-32.011002 -30.762463 92.832275 4.0
-2.159767 27.6842 -22.401585 4.0
19.429993 40.697624 -34.850044 2.0
1.0307 21.3563 6.4441 0.0
-6.87985 18.581301 -2.1847 4.0
-26.250946 -28.022329 86.018761 4.0
-17.837345 -2.556725 48.343983 4.0
4.410861 24.31945 33.344116 0.0
-55.11515 -51.724125 137.7764 4.0
13.304462 20.015724 108.0425 0.0
4.26695 28.104099 -21.940901 4.0
-14.278825 8.578726 32.868725 4.0
-69.704018 -60.515564 141.32204 4.0
-27.848551 -21.4086 80.1922 4.0
-0.15385 60.359833 -138.02687 1.0
-0.536 56.66885 -131.86096 1.0
77.526215 35.948387 9.152435 2.0
-24.428768 -7.584541 70.197311 4.0
0.27175 60.958302 -139.21001 1.0
13.370814 22.184387 105.56402 0.0
-3.775108 33.418541 -27.746368 4.0
-9.0716 14.31475 10.49965 4.0
-44.267349 -39.481899 113.2123 4.0
1.35295 22.719601 1.9299 0.0
7.527629 22.637959 71.176704 0.0
-17.185663 -17.872213 66.244064 4.0
-96.744446 -66.014145 163.29572 4.0
-3.014667 22.361626 -9.155613 4.0
-2.840004 21.790169 -7.682817 4.0
-20.000025 0.611263 51.717812 4.0
-39.889175 -40.564522 105.42902 4.0
12.000095 20.229111 97.083054 0.0
9.345901 42.850147 -55.847 2.0
-8.4712 24.283649 -0.13025 4.0
-13.080784 51.224041 -108.27821 3.0
-20.624466 -25.329525 74.870285 4.0
-13.932066 0.951301 37.97794 4.0
-10.39028 12.771061 13.851907 4.0
-86.015869 -62.267082 160.34117 4.0
-7.252197 -5.806061 48.824032 4.0
-25.070679 -29.219559 86.237831 4.0
-3.793475 19.214075 -0.699175 4.0
39.683102 37.682503 -8.5222 2.0
3.15335 32.413502 -20.9837 0.0
-16.0455 1.15735 41.44595 4.0
36.952248 33.539032 -6.802463 2.0
4.52675 62.805801 -164.6813 1.0
-0.85545 41.108498 -42.164772 4.0
0.785813 20.598213 -4.37345 4.0
22.898134 34.110329 -26.257675 2.0
-0.870247 24.079046 28.18338 0.0
6.455708 22.560888 37.267437 0.0
69.421143 36.954689 9.245786 2.0
-40.812328 -36.253407 107.23801 4.0
87.223099 36.632462 8.85531 2.0
-44.269035 -50.613434 112.04073 4.0
42.374695 42.19902 -4.701804 2.0
-0.869383 9.930473 22.851194 4.0
8.61895 18.330326 51.704102 0.0
17.897449 36.078499 -33.1586 2.0
-21.170551 -26.573622 76.758072 4.0
80.674911 31.029129 9.378238 2.0
0.79175 38.805885 -55.089375 1.0
-0.459308 29.488125 0.846908 0.0
56.07159 41.776299 7.9808 2.0
-19.885584 -19.454367 70.523132 4.0
2.27305 38.900711 -41.06945 4.0
-25.211481 -11.866168 72.724937 4.0
-0.67865 64.236305 -162.48811 1.0
7.37485 21.883076 54.641365 0.0
98.757484 37.038303 7.4194 2.0
-16.87105 45.435799 -112.01465 3.0
-7.42915 21.92 -1.2032 4.0
-42.013062 -34.851341 116.85789 4.0
-26.370714 -21.9373 79.323174 4.0
41.179443 43.245701 -5.16529 2.0
47.327675 31.961521 1.963512 2.0
6.66205 22.058931 30.432734 0.0
-41.485188 -37.610023 107.23702 4.0
-0.43515 18.223537 1.993625 4.0
-5.556925 28.577499 -15.622499 4.0
-10.16755 23.873051 4.8159 4.0
2.21905 28.11405 -22.2456 4.0
-21.709215 -0.725448 56.362286 4.0
3.17135 66.039497 -162.7571 1.0
-1.965567 34.383255 -29.545301 4.0
-43.855637 -39.767128 109.45731 4.0
-3.6637 23.439699 -11.395599 4.0
-14.57805 -16.5816 64.225998 4.0
4.001733 56.268932 -123.01811 1.0
5.5965 24.113276 21.412724 0.0
1.926525 23.483757 44.796482 0.0
-13.921991 8.89234 31.49892 4.0
-13.422675 -15.181974 62.353901 4.0
-0.00705 31.883499 -33.384899 4.0
-29.996864 -33.462807 94.285416 4.0
0.8699 22.189251 -8.975 4.0
81.034531 40.333714 12.814558 2.0
-5.80625 7.07048 25.666267 4.0
-1.8937 33.576698 -40.622849 4.0
2.237938 51.962334 -108.64607 1.0
3.265275 29.168575 0.830175 0.0
3.37035 59.69136 -145.74828 1.0
-2.257908 23.240067 28.51523 0.0
-35.167751 -34.2435 98.021599 4.0
54.078728 40.795425 4.791175 2.0
-29.010639 -36.642857 96.966705 4.0
33.683876 34.954811 -12.860879 2.0
-3.969527 22.877739 -10.634504 4.0
-0.79105 41.715027 -50.882378 1.0
-1.48605 39.7948 -60.392448 1.0
-25.100233 -17.731674 73.247131 4.0
56.845573 36.99794 4.889587 2.0
6.885133 40.087467 -57.869781 2.0
5.620825 22.759789 50.2225 0.0
4.881883 21.7061 12.472466 0.0
8.50225 18.4032 69.151199 0.0
-0.362433 38.577034 -56.443798 1.0
-46.118332 -43.157669 124.82569 4.0
-14.311749 -11.258801 58.070766 4.0
-18.758816 -9.694635 57.947029 4.0
2.3152 23.299351 54.06115 0.0
-3.469525 26.907864 -6.217862 0.0
-17.139925 -1.09605 43.915127 4.0
-72.267426 -62.120831 142.96567 4.0
2.3195 23.2064 58.796448 0.0
1.04035 51.987701 -110.27767 1.0
-13.006474 13.795875 29.018499 4.0
-9.250213 24.60535 2.276012 4.0
-51.659569 -49.404148 121.118 4.0
4.052317 57.725224 -123.16259 1.0
0.527708 37.677818 -35.170807 4.0
-2.3506 37.5686 -39.8937 4.0
3.4411 52.557499 -108.3231 1.0
-0.359075 48.359699 -89.859901 1.0
-58.651421 -54.116798 130.56683 4.0
-17.82555 45.498611 -111.40078 3.0
1.924138 41.292854 -62.408997 1.0
3.404017 31.345949 -14.615817 0.0
-37.448753 -33.338448 100.26375 4.0
-45.602558 -51.706085 113.2591 4.0
-22.520638 -10.066963 64.118088 4.0
-8.10787 19.79372 1.67961 4.0
-40.294518 -27.865292 107.36728 4.0
4.18725 52.871498 -103.7735 1.0
-16.4139 49.606728 -105.38775 3.0
2.71785 30.7024 -7.03805 0.0
-74.914093 -63.113617 145.41953 4.0
-14.121414 44.990078 -113.59366 3.0
-8.36095 -4.5553 47.074551 4.0
-65.253212 -59.93375 135.63652 4.0
11.390635 20.525316 91.221352 0.0
1.6337 34.483215 -39.997574 4.0
-13.990343 50.294746 -108.27794 3.0
64.366364 36.722557 8.156067 2.0
6.227925 40.798569 -60.018551 2.0
5.90275 23.7959 77.0924 0.0
4.148925 55.497074 -116.39199 1.0
-3.49295 26.934099 1.0288 0.0
0.861182 23.241432 46.267479 0.0
-16.657551 -2.3054 44.7547 4.0
-11.024412 18.749645 13.634239 4.0
2.4644 43.3736 -68.486153 1.0
-13.787912 10.695513 31.336964 4.0
65.251053 31.672894 7.566394 2.0
-1.395025 40.597076 -55.898174 1.0
6.841933 19.501625 31.406185 0.0
6.3108 19.891068 23.3876 0.0
-10.400034 -9.641742 54.18153 4.0
1.2647 24.232899 -2.902925 0.0
53.403645 41.463482 4.75245 2.0
-0.883648 35.816181 -47.385876 4.0
14.653675 41.814873 -43.023525 2.0
-0.84175 43.082901 -63.381275 1.0
-1.59747 24.450151 23.968977 0.0
-0.809642 61.488693 -157.64035 1.0
56.657776 40.776428 7.393 2.0
-79.881844 -66.003922 149.24605 4.0
-20.918343 -5.752712 58.306107 4.0
8.1261 23.113701 75.24015 0.0
36.207897 35.60424 -10.557611 2.0
-6.419857 -1.166732 41.871494 4.0
17.399143 35.915077 -33.783855 2.0
