# .PCD v0.7 - Point Cloud Data file format
VERSION 0.7
FIELDS x y z label
SIZE 4 4 4 4
TYPE F F F U
COUNT 1 1 1 1
WIDTH 1549
HEIGHT 1
VIEWPOINT 0 0 0 1 0 0 0
POINTS 1549
DATA ascii
-6.1864 4.70315 -19.29355 1.0
0.910978 -7.299738 10.470206 2.0
-8.084167 9.075039 17.280096 0.0
-6.1009 9.324917 11.496651 0.0
-6.0869 5.47425 -36.944248 1.0
-4.44885 6.3419 -19.08135 1.0
-5.089233 7.443983 -10.726216 1.0
5.5434 -10.44225 10.276317 2.0
-3.7119 5.21955 10.99815 0.0
-9.0404 5.77485 15.31365 0.0
-4.854325 4.4297 1.696775 0.0
-3.86392 5.30535 -1.48165 0.0
-4.860567 4.348683 -7.71275 1.0
6.866845 -8.548394 6.478283 2.0
-6.096156 3.10935 21.729961 0.0
-7.298601 6.70889 -27.941708 1.0
-5.780267 5.431917 -35.094753 1.0
-0.480983 5.087475 -11.079125 2.0
3.699616 -8.881717 12.659167 2.0
5.71705 -5.868907 2.4997 2.0
-5.6776 5.6187 -28.755501 1.0
-6.14315 8.07605 3.28125 0.0
12.276718 -11.902984 10.904758 2.0
-9.4209 8.20065 23.249649 0.0
-5.515334 9.346217 9.959384 0.0
-5.9385 4.09015 4.85965 0.0
8.330469 -4.26385 -1.70065 2.0
3.8244 3.44955 -7.30735 2.0
-6.142 7.85175 -35.118401 1.0
-3.51962 -1.18027 -2.18425 2.0
-6.074434 5.310583 -22.943117 1.0
-7.8294 7.91865 -35.39225 1.0
-8.292866 3.52725 21.053583 0.0
-5.8324 -1.24005 -1.84715 2.0
-6.9313 5.86435 -7.09195 1.0
-3.1966 5.18605 7.31465 0.0
2.55625 -8.23125 11.833651 2.0
-8.6685 4.5153 17.1441 0.0
-8.07995 2.81175 24.80015 0.0
-6.9035 11.77645 -33.126751 1.0
1.6004 3.79965 -8.60335 2.0
-3.691912 6.096587 -4.888175 1.0
12.6524 -10.094816 5.050383 2.0
-5.6202 8.37445 -39.358051 1.0
-6.764666 6.905333 -1.942233 0.0
-1.693033 2.926083 -9.696063 2.0
-4.510244 8.323072 3.11635 0.0
5.889188 -6.761251 3.853162 2.0
-7.1612 6.0732 -36.746151 1.0
-5.491375 3.346612 20.720011 0.0
-5.7776 7.60815 -31.42985 1.0
3.89105 -9.067084 9.127601 2.0
-1.295067 2.095083 -8.292851 2.0
-7.347321 8.14435 11.91631 0.0
-3.66415 3.92065 14.5187 0.0
-2.917767 5.692584 9.52645 0.0
-9.9695 8.27045 25.527651 0.0
-7.6064 6.25335 6.71015 0.0
6.4779 -10.78405 10.81735 2.0
-0.905405 -1.677111 -2.331628 2.0
0.306158 3.279071 -8.910757 2.0
-8.14095 6.912283 12.455884 0.0
7.9592 -8.17205 5.23435 2.0
-6.6533 4.9526 2.694 0.0
-7.285666 2.558683 -14.29305 2.0
-7.0476 2.51435 26.29425 0.0
12.9979 -11.51955 8.95185 2.0
-8.148951 3.83365 18.8617 0.0
-6.9997 6.00855 -31.68885 1.0
-3.861125 4.0985 10.88575 0.0
-4.5063 3.694025 -14.1609 2.0
-5.1555 4.40755 -16.16815 1.0
-0.494469 0.891419 -6.513727 2.0
-6.28342 5.54671 -27.34199 1.0
-6.577733 6.530817 -16.333651 1.0
-6.2945 5.18695 -9.10585 1.0
-2.7273 2.565567 -10.8898 2.0
-7.549446 5.655895 -25.742359 1.0
-3.8988 5.08485 -5.8775 1.0
-1.60785 -4.8146 5.9107 2.0
-9.3928 2.51675 33.691051 0.0
-8.559626 9.285399 19.497511 0.0
-6.209 8.00365 1.31245 0.0
10.5524 -11.21085 8.96605 2.0
-3.22826 6.29245 4.27587 0.0
-7.29805 8.738899 -38.071301 1.0
-8.778649 6.69965 16.705599 0.0
-7.287 6.10635 -29.926987 1.0
-9.1071 2.691525 29.852875 0.0
4.301 2.00665 -5.66445 2.0
-0.1221 2.46155 -8.146825 2.0
-5.362 7.44035 -12.89065 1.0
-8.3933 8.72305 -36.944351 1.0
-3.67548 7.11603 -0.91804 0.0
-6.67 7.61745 0.06355 0.0
-10.173467 6.089533 23.268816 0.0
-4.885016 -1.266683 -1.06085 2.0
-9.40925 5.3006 18.9182 0.0
1.917836 2.480964 -7.357285 2.0
4.7165 -8.42855 7.0945 2.0
-8.880449 2.51145 32.252098 0.0
-1.5987 4.45085 -10.98865 2.0
-11.6996 6.81435 30.68235 0.0
-5.1853 12.42625 -33.302052 1.0
7.687467 -10.299759 9.3048 2.0
9.29042 -10.332142 7.883143 2.0
-4.45935 -0.745417 -3.12925 2.0
-6.7085 4.37525 7.52915 0.0
-5.694212 8.897475 7.105475 0.0
5.893546 -4.288466 0.106619 2.0
5.863783 -9.51195 13.763351 2.0
-6.7622 3.48365 15.56055 0.0
-5.2588 5.17595 -26.582451 1.0
-4.300471 8.628336 4.539735 0.0
-8.269575 5.32625 13.640125 0.0
3.1343 -8.44425 7.93785 2.0
-7.5519 3.13025 19.706749 0.0
7.501046 -6.314132 2.308177 2.0
-6.4006 4.98435 -0.95915 0.0
-6.6288 6.41115 -12.93345 1.0
-5.6064 10.02845 -33.99205 1.0
-12.487 3.09265 37.02235 0.0
11.500043 -10.531892 7.664207 2.0
-5.745133 3.09715 24.715517 0.0
-6.337 -1.00645 -3.74035 2.0
-10.947371 3.849464 30.074064 0.0
7.504217 -10.862083 10.331267 2.0
-6.2859 7.089567 -20.069733 1.0
-6.242 4.91975 -14.87005 1.0
-2.119567 1.322983 -7.345884 2.0
-3.1264 -3.59315 5.41355 2.0
-7.0384 7.00865 -23.139151 1.0
9.0211 -9.169251 6.0844 2.0
-2.889071 -1.885743 -0.712179 2.0
4.50591 -9.333131 12.1231 2.0
-7.2684 7.62855 -32.153801 1.0
-3.744728 6.903535 -2.847964 0.0
2.30155 3.3554 -7.8806 2.0
-6.88786 5.63601 -24.876509 1.0
11.512234 -8.252116 1.72995 2.0
4.271875 -5.637925 2.154375 2.0
-6.6841 6.64785 -14.29665 1.0
-5.7943 5.77395 -38.103748 1.0
-7.0705 5.7511 -8.49 1.0
-3.498694 2.276273 -9.71572 2.0
10.273624 -12.307475 13.86085 2.0
-4.2391 4.7065 15.8959 0.0
-5.9183 7.85655 -4.15257 0.0
-5.25294 5.22133 -20.500589 1.0
-4.284414 0.639786 -7.136013 2.0
-5.33665 7.2491 -28.25725 1.0
-11.5991 2.34755 36.890602 0.0
-7.82 6.89235 -36.539349 1.0
-5.838 6.89969 -38.68581 1.0
-6.8565 -0.3545 -7.2137 2.0
10.102178 -11.878915 11.095615 2.0
-6.900625 8.078725 6.64795 0.0
2.3128 -2.323088 -1.895737 2.0
-5.307233 8.71685 5.109517 0.0
11.5927 -9.00625 3.75965 2.0
-4.328562 5.721325 -16.518288 1.0
-9.665376 6.872525 21.711775 0.0
5.74445 -10.00145 9.2423 2.0
-5.9475 7.58045 -8.628201 1.0
-7.402 5.99745 -21.700251 1.0
1.092936 -1.28035 -3.450877 2.0
-5.88346 3.84461 -14.34003 2.0
-5.524511 7.24896 -15.945862 1.0
-9.555312 6.516488 20.497913 0.0
-6.9788 6.17435 -19.93635 1.0
0.12172 4.65085 -10.11285 2.0
-6.88519 4.270895 -15.712706 1.0
2.3223 -5.40905 2.74045 2.0
-5.0885 -1.5008 -0.0401 2.0
4.119321 -7.090093 5.295556 2.0
1.29205 -4.3753 1.4628 2.0
-6.4848 1.87225 -12.135138 2.0
-6.8636 5.116725 1.6493 0.0
4.912787 0.51507 -4.868556 2.0
-3.637767 5.499217 -0.161217 0.0
-11.8533 5.50165 30.775949 0.0
4.8833 -1.159283 -3.35565 2.0
3.50238 -7.461383 6.115804 2.0
-9.164983 7.314283 19.666176 0.0
2.497925 1.907865 -6.726095 2.0
-4.08535 6.0496 8.0303 0.0
0.8086 -2.21945 -2.70475 2.0
-12.1704 2.75745 38.773048 0.0
3.714945 2.487072 -6.535183 2.0
-3.55225 5.8862 -3.891962 1.0
2.508308 -6.287049 4.708819 2.0
7.642643 -4.551121 -0.53725 2.0
11.27798 -11.77503 10.24135 2.0
-4.030266 8.71265 6.560883 0.0
-8.350329 4.901679 15.69755 0.0
-4.8188 5.80915 -22.17215 1.0
-10.922701 6.51195 27.271198 0.0
-3.7111 -2.515864 3.257721 2.0
-0.359133 -3.773183 1.694917 2.0
-5.498484 -0.877167 -2.897366 2.0
-11.06115 2.95255 33.51445 0.0
-6.4551 9.65675 13.16475 0.0
-5.4375 7.40525 -14.08665 1.0
-4.5099 8.84485 8.20135 0.0
-3.3965 6.45215 -1.91005 0.0
9.88705 -7.322632 2.08845 2.0
-0.3595 3.52685 -9.6412 2.0
-8.538562 8.483687 18.307638 0.0
-9.3131 3.048117 26.316483 0.0
-8.534534 6.083817 14.485618 0.0
-6.4345 5.36205 -11.45655 1.0
-5.4574 4.32945 -10.01275 1.0
-7.4192 6.88305 -31.382601 1.0
-0.7256 -0.9797 -3.358167 2.0
-8.507324 6.698938 -38.902626 1.0
4.291422 -0.34455 -4.312017 2.0
-4.289587 -1.853675 1.684662 2.0
-3.332775 5.104075 6.312 0.0
3.28906 -4.82771 0.96451 2.0
6.314611 -3.307572 -1.485283 2.0
-5.91315 4.885875 -16.900024 1.0
-3.2481 4.63065 -13.3049 2.0
-5.5019 4.9725 -18.48595 1.0
-4.9426 1.953259 -10.439442 2.0
-2.535692 3.73585 -11.681927 2.0
-11.8339 3.1758 34.340801 0.0
10.466712 -8.151649 3.321725 2.0
-1.053429 -4.065278 3.109536 2.0
8.82225 -3.72915 -3.05475 2.0
-5.0438 1.22595 -8.97945 2.0
9.0012 -11.97175 12.22345 2.0
-9.848534 4.903683 21.763517 0.0
0.965317 -6.24535 6.129167 2.0
-2.840966 5.104983 13.904217 0.0
-7.4488 6.37175 -38.461052 1.0
-6.543551 6.880833 -7.524134 1.0
-11.2458 5.090967 28.459116 0.0
9.894381 -10.140796 7.070296 2.0
-5.5291 4.37535 -2.44015 0.0
-10.52778 6.49935 25.307709 0.0
-5.04865 6.09325 -26.922075 1.0
-4.315457 4.963807 10.114664 0.0
-6.9675 8.41175 -35.479752 1.0
3.05035 0.8618 -5.3595 2.0
-8.938589 8.304673 20.256075 0.0
-5.1441 4.52425 -0.60845 0.0
-7.8991 7.09385 8.50705 0.0
-5.32425 4.3711 2.5725 0.0
0.3238 -1.12415 -4.062283 2.0
2.301379 1.088796 -6.136799 2.0
-3.5534 0.39805 -6.41815 2.0
-7.106328 3.690635 16.693277 0.0
-7.0573 5.49929 4.69841 0.0
-3.0684 -0.61415 -4.22265 2.0
-4.0326 7.15215 -15.45455 2.0
-6.289433 8.074517 -33.514347 1.0
-9.558133 3.021917 28.070848 0.0
-8.258334 8.884816 -35.089184 1.0
-5.299811 9.541462 -36.086418 1.0
-10.6274 5.25495 23.768049 0.0
8.049867 -11.920283 11.934283 2.0
-2.084714 6.260364 -13.096092 2.0
-10.293711 4.308739 25.290184 0.0
-12.338883 4.481283 33.13245 0.0
7.8066 -9.98085 14.26225 2.0
-7.308881 5.695517 7.48607 0.0
6.088877 -7.287981 4.689019 2.0
-8.117024 2.6866 28.134548 0.0
-1.863936 2.085236 -9.127493 2.0
1.472178 -5.743661 4.472661 2.0
-8.927201 5.29475 17.708868 0.0
-6.858 8.96805 -33.73745 1.0
9.057166 -4.953461 -1.515283 2.0
-4.4504 5.21725 7.61935 0.0
-3.74626 5.296557 -14.959331 2.0
-6.296157 4.915379 0.874864 0.0
-2.109955 -3.151132 2.294041 2.0
-6.1024 3.37609 18.87229 0.0
10.298375 -8.942287 5.09935 2.0
-5.316933 7.144783 -21.872116 1.0
-7.078049 7.131988 -24.877775 1.0
-6.5728 8.59805 8.52705 0.0
-10.49515 3.0645 31.0798 0.0
2.8833 -3.43005 -0.61225 2.0
-9.945721 6.12282 22.272699 0.0
-4.5311 4.589 0.67365 0.0
9.129049 -6.8206 1.73115 2.0
-6.994 4.28485 10.64595 0.0
-13.1344 4.42315 34.668049 0.0
-4.895678 6.089005 -24.916683 1.0
9.694029 -6.1012 -0.49882 2.0
1.645484 -7.170634 7.8879 2.0
-4.694808 -0.132612 -5.306658 2.0
-10.4008 8.03695 26.59515 0.0
-4.309 3.9212 13.462524 0.0
9.30085 -11.29355 10.28712 2.0
-8.925626 4.301019 19.269751 0.0
-8.881843 8.873207 21.487749 0.0
-8.894313 2.94845 25.340137 0.0
-4.50598 3.69439 18.26391 0.0
-5.527584 7.2977 -32.309879 1.0
-1.9078 0.23055 -5.39865 2.0
-7.07964 6.88397 2.47931 0.0
11.50715 -11.0198 8.51135 2.0
-2.20385 5.23595 -12.57675 2.0
-6.888 3.97215 12.60815 0.0
-4.287475 -1.655425 0.4693 2.0
-7.9198 8.924749 -36.095299 1.0
-2.678093 -3.48215 4.27505 2.0
-9.90965 7.52665 23.7279 0.0
-2.934525 5.4904 10.504126 0.0
3.1021 -2.7561 -1.31775 2.0
-4.3381 4.47945 -1.37275 0.0
-7.1273 5.50055 -22.853649 1.0
-6.522 6.62105 -9.58555 1.0
7.523442 -11.301149 12.480807 2.0
-0.319817 -2.558467 -0.968483 2.0
-6.177725 0.1898 -8.03155 2.0
-3.4165 5.05905 8.96405 0.0
-6.1812 -0.13325 -6.19775 2.0
-8.432772 7.681307 16.469793 0.0
8.6006 -11.39005 13.67145 2.0
-3.690914 7.913178 4.706021 0.0
-6.06486 1.66648 -11.124109 2.0
4.625 -6.58285 4.0583 2.0
-11.8682 5.24305 29.578449 0.0
-5.9221 11.68985 -33.171749 1.0
-6.6969 0.71473 -10.68899 2.0
4.7026 -3.681256 -0.465303 2.0
-4.29975 6.3074 -14.0945 1.0
4.2964 1.20395 -5.15915 2.0
5.903099 -0.896441 -3.852387 2.0
-7.308367 7.911116 7.657717 0.0
-8.11249 7.89788 15.29442 0.0
-5.8313 10.89785 -34.41745 1.0
-1.8653 -1.638917 -2.21875 2.0
-2.7607 2.21675 -8.85475 2.0
-6.8274 5.17605 -18.653351 1.0
-11.3241 7.066117 29.725349 0.0
1.3779 -2.39325 -1.79095 2.0
6.307612 -5.033263 0.960113 2.0
-5.8643 7.81765 -24.61445 1.0
-7.7761 7.97895 13.84275 0.0
-3.4971 3.72265 15.4862 0.0
-9.976275 4.4722 23.437624 0.0
-7.0493 7.20965 -35.150051 1.0
1.09224 4.914534 -9.859158 2.0
-4.08308 4.70721 12.861331 0.0
-7.117875 5.863087 -27.063274 1.0
-6.09815 5.762875 -31.7055 1.0
-2.693427 -1.241195 -2.684505 2.0
-4.87245 6.8752 -20.87705 1.0
6.325533 -10.244316 13.415217 2.0
-4.349966 7.676117 -2.812717 0.0
-2.9317 -2.173483 0.313767 2.0
0.676 -3.5771 0.278475 2.0
-6.312334 7.136416 -18.264685 1.0
-4.9614 6.14015 -28.355249 1.0
-6.0466 3.79075 9.19455 0.0
-7.88475 4.358962 15.107512 0.0
-1.293192 -2.512325 -0.490167 2.0
-12.5331 3.43575 35.80275 0.0
-5.765233 7.29165 -35.972317 1.0
11.152367 -9.614016 5.919417 2.0
-3.513722 -1.505239 -1.318339 2.0
-6.503 2.91997 23.701111 0.0
-7.490313 2.743925 25.509312 0.0
-3.4106 5.917584 1.335017 0.0
-6.08635 5.681476 -30.073051 1.0
3.7389 -8.036418 6.980484 2.0
-4.132856 7.284561 -4.71265 1.0
-4.5058 5.15257 8.869011 0.0
10.57135 -7.27795 0.326 2.0
-2.9251 6.298007 7.47245 0.0
6.37995 -10.838224 11.741924 2.0
-6.2229 9.44165 -37.264751 1.0
8.658566 -10.534494 9.073461 2.0
-10.12675 2.760575 34.242249 0.0
-11.727765 3.8879 32.303776 0.0
-9.634741 5.10935 20.883869 0.0
-6.91278 4.85354 -16.53701 1.0
-7.8152 7.04835 10.447451 0.0
-5.761633 5.17585 -22.092516 1.0
-5.691933 7.487717 -11.419983 1.0
-3.9344 4.13565 9.52015 0.0
4.101038 -2.643504 -1.716342 2.0
-3.1682 7.360601 2.29755 0.0
-6.74135 9.74105 -35.504173 1.0
-6.0748 4.76385 -0.107425 0.0
-7.283114 6.484721 4.539136 0.0
-4.5443 6.697 -25.500299 1.0
-3.45164 5.07437 4.484549 0.0
-1.510205 -0.687792 -3.922992 2.0
5.6698 -2.24615 -2.6036 2.0
-9.08323 4.101212 20.500454 0.0
-4.758033 5.74855 -21.257982 1.0
-8.7372 3.11165 22.96965 0.0
-10.559099 5.486777 24.898741 0.0
-10.7128 2.35415 36.524151 0.0
1.8675 -0.12385 -4.770975 2.0
-3.15245 4.68345 12.66945 0.0
-6.1336 7.098675 -12.55775 1.0
-7.095537 9.098051 14.327013 0.0
-5.717 5.02365 -12.17635 1.0
-3.6452 -0.00885 -5.61515 2.0
-2.923809 -3.123645 3.48415 2.0
-5.2736 6.4881 -34.082001 1.0
-12.477345 4.112923 34.111881 0.0
-7.97829 6.09126 11.28508 0.0
-6.2902 9.050449 10.359917 0.0
-6.866829 3.955836 13.661677 0.0
4.89556 -3.0625 -1.28088 2.0
-1.2737 -0.25117 -4.88553 2.0
-4.653833 4.297284 3.91395 0.0
-6.721525 4.316937 8.688638 0.0
-8.7438 6.13315 12.69335 0.0
-7.746075 5.08115 11.695012 0.0
-9.3059 2.717636 30.724749 0.0
-1.9774 -1.98345 -1.19255 2.0
-4.1193 6.043583 5.87235 0.0
-3.13175 3.519675 -12.63365 2.0
-6.339 5.1021 -5.11245 1.0
-7.9541 6.82275 -33.15995 1.0
5.7612 0.59015 -5.22085 2.0
-6.93186 6.09367 -39.313129 1.0
-3.267725 5.2954 -14.0581 2.0
9.88531 -6.524381 0.28857 2.0
-5.079 4.01995 8.6105 0.0
11.898975 -10.225325 6.91595 2.0
-3.727175 4.7287 3.317625 0.0
-5.774425 7.506724 -37.526112 1.0
-7.9147 9.80245 17.763651 0.0
7.637163 -2.72525 -2.919837 2.0
-5.3977 6.29385 -34.99445 1.0
8.361549 -6.8323 2.385 2.0
-4.742 6.40785 -15.61605 1.0
-6.13936 4.28383 5.70049 0.0
-6.71654 5.70915 -16.02681 1.0
-7.3564 6.37935 -1.04075 0.0
5.2629 2.08075 -6.07995 2.0
0.3611 1.28035 -6.55125 2.0
-9.8712 5.60805 19.66515 0.0
-6.106772 4.151222 -15.313936 2.0
2.104662 -0.880265 -3.896504 2.0
-4.221317 6.74505 -8.89965 1.0
-7.3621 7.530583 -34.304981 1.0
6.1349 -0.24235 -4.70425 2.0
-7.0581 6.06215 -19.05335 1.0
-5.13252 3.58447 16.092091 0.0
-7.2429 6.23145 -2.24455 0.0
-0.2812 -1.98675 -1.7873 2.0
-11.05085 3.1492 32.534401 0.0
-5.303 8.76875 -37.91925 1.0
-4.3997 7.62545 -3.91205 0.0
-3.669233 -2.281061 2.137861 2.0
-4.2867 4.7463 11.6385 0.0
1.23275 0.18745 -5.42575 2.0
-4.2341 4.02325 19.863649 0.0
-7.5089 6.34335 3.08455 0.0
-5.698783 8.073383 -1.072017 0.0
8.699662 -7.53485 3.487525 2.0
2.313744 -5.038328 1.94475 2.0
3.47595 -1.58055 -2.9033 2.0
-7.294367 6.724317 -24.099318 1.0
-6.26495 4.94635 -1.82455 0.0
11.6321 -12.25265 13.23225 2.0
-2.933829 -0.178521 -4.970736 2.0
4.91435 -7.421083 5.506083 2.0
-4.10125 6.702 -16.236649 2.0
-0.098964 -5.303959 5.119759 2.0
-6.0896 7.22135 -16.612301 1.0
1.49271 0.7599 -6.0938 2.0
-4.1513 4.17665 -15.172618 2.0
-6.3483 7.62715 -23.261848 1.0
7.09778 -3.306525 -1.883225 2.0
-6.227367 0.888817 -9.661984 2.0
-9.917974 3.08505 35.291752 0.0
-9.782867 3.821783 24.492815 0.0
-3.8753 6.73665 -7.25315 1.0
-8.161332 3.445875 30.890079 0.0
-3.72465 1.16113 -7.86977 2.0
-4.9205 3.57456 17.464209 0.0
3.9033 -3.873172 -0.069039 2.0
-3.8242 4.54865 1.96435 0.0
6.698518 -9.058395 7.530805 2.0
9.48986 -11.50113 14.252729 2.0
-5.093581 0.303406 -6.8776 2.0
-4.69365 2.822975 -11.34985 2.0
9.705714 -8.476981 4.489489 2.0
-3.2996 6.90327 -0.11709 0.0
-0.523792 -4.750389 4.273243 2.0
12.15155 -11.56945 10.0832 2.0
-4.36355 6.2491 -17.206051 1.0
-7.1025 6.134617 -37.64032 1.0
-6.8061 6.11765 -3.93845 0.0
-0.289731 -3.492518 0.709925 2.0
-11.07445 6.8776 28.072701 0.0
6.327975 -4.022275 -0.642075 2.0
-5.314254 -0.037179 -6.083546 2.0
-5.7372 4.63455 -4.30095 1.0
-4.595 7.62165 -5.78195 1.0
-6.0629 -0.51085 -4.51485 2.0
-4.440067 6.68425 -11.479083 1.0
0.91 -6.668923 7.864832 2.0
-3.901739 -0.561288 -3.886096 2.0
-6.1324 4.77355 -13.81305 2.0
-6.47125 5.912775 -35.285801 1.0
-9.8033 4.20375 22.45685 0.0
-3.091233 6.70505 5.884783 0.0
7.529767 -9.76855 8.474283 2.0
-7.4183 4.75075 9.91805 0.0
-8.47655 7.69995 -38.83585 1.0
3.092268 3.715034 -7.671301 2.0
-0.72193 -5.15915 5.857999 2.0
8.10689 -11.305459 10.91059 2.0
-11.3835 2.14955 37.85075 0.0
6.9285 -9.9417 9.07685 2.0
-6.63755 6.26685 -11.443501 1.0
10.504827 -7.506883 1.523337 2.0
0.732133 -5.828517 5.27385 2.0
-6.094525 7.732738 -1.900562 0.0
-9.104382 3.70285 22.295885 0.0
5.10698 -8.8815 7.70702 2.0
-10.777817 4.685417 27.118317 0.0
-6.8522 6.476417 -18.32815 1.0
-2.4781 -1.00775 -3.50045 2.0
-7.2314 7.88515 5.67105 0.0
-2.0314 4.432225 -11.739475 2.0
-6.9999 8.37465 10.06025 0.0
0.540283 -6.233967 6.869467 2.0
-3.8516 3.905983 12.679683 0.0
-6.5476 -0.60715 -5.32275 2.0
-6.08242 10.26225 -35.329788 1.0
-7.2161 5.37795 5.87395 0.0
-7.30928 6.28169 -34.710388 1.0
-7.09235 5.02935 -17.4163 1.0
-6.10564 5.13067 -21.293011 1.0
-8.72567 6.30962 15.923729 0.0
-4.9529 7.52165 -16.550701 1.0
1.237 1.97045 -7.40465 2.0
-7.3318 7.41815 -28.98385 1.0
-4.6396 7.79555 -1.53675 0.0
-6.324934 5.12325 -3.486183 0.0
2.0091 -7.57945 9.06715 2.0
-7.115722 5.924278 -29.09852 1.0
-6.264034 8.670751 6.499583 0.0
-0.90385 5.763475 -12.031325 2.0
2.050733 -7.189917 7.085184 2.0
-7.507822 3.150317 21.871315 0.0
10.5851 -12.21945 11.94815 2.0
3.915733 -4.349451 0.634483 2.0
-1.481643 -2.83705 0.30865 2.0
-12.29355 5.0487 31.339701 0.0
-7.6084 3.05585 -14.94475 2.0
-3.33108 6.100817 2.89011 0.0
-10.46718 2.94445 31.916809 0.0
-5.674 9.40255 -34.556648 1.0
-7.29244 9.49429 -36.12215 1.0
-6.280075 7.501925 -6.07395 1.0
-4.91996 5.70927 -23.867031 1.0
-7.6415 8.880489 15.50519 0.0
-5.303712 2.878703 -12.109199 2.0
-7.6325 8.01875 10.87795 0.0
5.50925 -6.301233 3.255517 2.0
-6.2708 7.81075 -26.552851 1.0
-3.472875 7.308274 4.075338 0.0
-3.85635 6.10465 -5.881466 1.0
-8.24245 4.39025 16.36405 0.0
6.718789 -1.454728 -3.677906 2.0
-9.977534 3.617717 26.284018 0.0
-5.91555 5.8813 -33.209599 1.0
-3.8738 4.49055 4.92305 0.0
-7.34545 3.3304 29.0961 0.0
8.331115 -9.663865 7.481451 2.0
7.485646 -7.723195 4.702614 2.0
-4.201 6.97725 -6.51565 1.0
-5.50175 8.7443 -36.263298 1.0
-8.27725 2.8201 29.898151 0.0
2.70548 -1.87976 -2.65494 2.0
10.69 -12.60845 13.19605 2.0
-6.09578 3.07585 22.889029 0.0
-6.9723 6.32345 -5.91945 1.0
-6.83404 5.69067 -0.52709 0.0
-8.1337 7.62685 -36.192749 1.0
-5.655 7.54945 -39.210651 1.0
-6.5865 5.31845 -33.65955 1.0
-8.05 7.65145 12.06425 0.0
-5.93515 4.8717 -5.87455 1.0
2.3115 -4.40535 0.18185 2.0
-11.63858 4.16967 31.521389 0.0
-5.7368 7.82395 -34.387451 1.0
-2.83874 7.09567 -14.26895 2.0
-9.219475 6.3098 18.528761 0.0
-0.305139 -0.507433 -5.070545 2.0
-4.510087 3.470825 -12.914612 2.0
-7.983334 5.258584 12.714184 0.0
5.2129 -9.74625 11.96125 2.0
-10.756925 4.037925 28.6991 0.0
7.613401 -1.16095 -4.5459 2.0
-7.30627 2.91416 23.47579 0.0
-5.4784 0.63005 -7.9212 2.0
9.894166 -7.717959 2.898525 2.0
-3.4463 5.04065 8.12035 0.0
1.297622 -2.902339 -1.09655 2.0
-8.806 2.41135 31.426649 0.0
-2.689575 0.667042 -6.523374 2.0
-5.303744 7.707739 -6.904306 1.0
5.31055 -4.646863 0.734025 2.0
-8.092014 7.282578 13.342178 0.0
-7.85495 7.1546 -34.954048 1.0
-4.715578 8.119073 0.098283 0.0
-6.8528 10.22335 -33.831551 1.0
-5.889375 5.459175 -26.09745 1.0
-5.8881 7.517525 -10.513575 1.0
-4.685877 -0.340161 -4.495139 2.0
-6.0775 4.46385 3.2395 0.0
-2.91546 1.33933 -7.87351 2.0
-5.7215 7.75735 -3.20065 0.0
2.253225 -6.562551 5.453938 2.0
11.135674 -8.440226 2.928913 2.0
-5.266767 6.324083 -32.737518 1.0
-4.0247 4.57025 14.14385 0.0
4.68314 -9.359129 8.892309 2.0
-6.297825 3.1965 20.827099 0.0
-7.3932 8.53715 12.69405 0.0
-9.3209 5.91965 17.033051 0.0
-6.470725 5.269425 -19.926777 1.0
-5.0235 5.21555 -25.43585 1.0
9.1367 -6.4191 0.95865 2.0
-7.2162 5.95235 -13.28865 1.0
-4.4282 5.41105 -9.92155 1.0
-6.10595 7.464 -28.050949 1.0
-4.0907 5.34005 -8.72585 1.0
-5.341833 8.143884 1.30295 0.0
7.303577 -8.273057 5.72982 2.0
-4.5105 3.9565 11.713051 0.0
6.514138 -5.900156 2.293194 2.0
-3.68745 3.56795 16.917702 0.0
-11.085239 3.70141 30.872433 0.0
-6.2498 8.22745 -36.068451 1.0
-5.10549 7.6405 -7.70733 1.0
-10.7374 7.093989 26.661892 0.0
-3.904682 2.904768 -11.566468 2.0
-1.375667 3.559583 -10.271816 2.0
-7.283 6.1524 -30.931402 1.0
4.45378 -9.54513 10.299589 2.0
5.713857 -2.867967 -1.903833 2.0
-8.094801 2.659317 26.924927 0.0
-3.849167 5.444084 -2.296817 0.0
7.66678 -5.76543 1.26507 2.0
-4.7296 9.46235 10.15585 0.0
-6.7474 6.88899 -2.95733 0.0
-3.4755 6.6978 -14.911249 2.0
-3.0663 6.50655 9.92865 0.0
-5.6053 9.22785 9.14085 0.0
-5.107545 7.086968 -24.099365 1.0
-9.6217 2.76065 29.22295 0.0
-4.773112 6.6811 -19.870588 1.0
-7.7298 3.358121 20.488235 0.0
-0.514315 -4.088026 2.499081 2.0
-5.501825 4.521075 1.071075 0.0
-4.642 4.02925 10.13195 0.0
-6.6626 5.73215 -10.3978 1.0
-7.895112 3.068025 22.8731 0.0
-1.53429 -4.36086 4.86458 2.0
-10.7562 5.091484 26.408552 0.0
-6.494667 4.04445 11.294185 0.0
0.542625 -4.839675 2.945825 2.0
-4.27225 1.45693 -8.70635 2.0
5.920423 -9.134038 7.903094 2.0
-3.442133 7.533984 5.74915 0.0
-6.8817 3.30385 26.126551 0.0
-4.8914 6.8998 -18.698826 1.0
3.469208 -8.552113 8.671166 2.0
-7.156614 3.112236 27.726076 0.0
-0.13259 -5.75891 6.701541 2.0
-10.55245 3.43105 29.5096 0.0
-11.686966 2.930739 35.093384 0.0
-5.517 4.70375 -10.72225 1.0
3.9228 -6.22345 2.87915 2.0
1.10513 -7.26032 9.69096 2.0
-0.0151 0.26705 -5.38955 2.0
7.083722 -10.504993 13.357894 2.0
-3.6358 7.94637 3.05271 0.0
-4.9637 6.05085 -29.153549 1.0
-6.829567 7.087633 -0.678417 0.0
7.855333 -2.34445 -3.591483 2.0
-3.16046 6.28891 5.10725 0.0
-7.906961 4.67099 13.929159 0.0
-7.4767 7.43455 -30.62595 1.0
-5.309586 3.864079 11.719935 0.0
-6.1304 9.30225 -33.763149 1.0
-6.549499 5.481917 -13.029416 1.0
-8.880982 7.088332 17.688402 0.0
-1.097141 0.364326 -6.510197 2.0
-6.647942 0.242505 -8.933277 2.0
-5.0794 4.91657 -17.719391 1.0
8.904875 -8.147025 4.499662 2.0
1.7003 -4.18625 0.80255 2.0
-5.90926 3.69021 13.86735 0.0
-5.6892 4.099025 7.34115 0.0
-6.65784 4.54459 6.24773 0.0
-6.449 7.95545 -31.73875 1.0
-5.297567 7.062717 -31.103149 1.0
-11.336744 6.504307 29.081848 0.0
-9.50595 2.78475 32.662449 0.0
-3.0466 -2.64015 1.77375 2.0
12.302992 -11.138528 8.877458 2.0
-7.070489 6.698728 1.705328 0.0
-1.504592 1.323426 -8.05553 2.0
-6.6569 8.02265 -34.521252 1.0
-10.9053 2.69385 35.462551 0.0
-4.4307 7.099917 -7.848383 1.0
9.708794 -10.738199 14.297813 2.0
-5.7705 7.07125 -36.73605 1.0
-2.792467 6.504716 8.501984 0.0
-5.679625 3.763513 12.681787 0.0
-7.482533 5.92945 -27.852282 1.0
-5.3646 9.36945 11.79575 0.0
-6.9299 5.6474 3.03545 0.0
-4.731829 6.295937 -23.321089 1.0
-0.6804 2.03505 -7.76285 2.0
-6.8852 8.856049 11.64095 0.0
-4.0866 4.22915 7.74705 0.0
-4.48415 4.72415 -8.33745 1.0
-5.91035 8.043151 2.525217 0.0
12.9109 -10.2787 5.96155 2.0
-5.257066 6.939917 -27.0924 1.0
-8.6068 6.64125 15.04175 0.0
-3.84732 4.03565 -13.746069 2.0
-6.671667 7.71855 -29.300751 1.0
-0.539517 -5.973816 8.097283 2.0
-5.5215 7.76015 -25.465651 1.0
5.105317 -5.5342 2.131033 2.0
-6.2376 8.00885 -30.845449 1.0
-5.78805 7.1918 -14.8918 1.0
-8.281401 3.959613 18.097813 0.0
-7.889039 8.907431 -37.51717 1.0
-7.72472 8.68967 -38.72797 1.0
-5.2711 8.46445 3.244384 0.0
-5.298367 3.613761 14.738373 0.0
-7.702971 9.288008 16.273706 0.0
-7.258566 4.67795 9.131116 0.0
-5.53115 7.2786 -29.626551 1.0
-0.4059 -6.69475 9.11455 2.0
12.8964 -12.19705 11.45155 2.0
2.90082 0.12964 -5.12686 2.0
-12.882075 4.0647 35.495377 0.0
-5.4396 7.1427 -18.042751 1.0
-11.3795 5.706313 29.068588 0.0
-4.3265 3.44235 19.35145 0.0
-5.87785 3.9231 10.0275 0.0
-6.511371 6.050908 -38.65839 1.0
9.090126 -12.364625 12.89015 2.0
11.688666 -12.224566 11.921433 2.0
-6.5089 7.26545 -9.06585 1.0
-10.290765 3.506908 27.905411 0.0
-8.28221 8.30272 16.90934 0.0
-6.713178 5.330783 -23.558287 1.0
-5.0434 4.91585 -22.275351 1.0
-12.177976 5.521375 32.102112 0.0
7.100028 -0.494707 -4.889479 2.0
9.296261 -5.512278 -0.925693 2.0
-6.964533 8.32215 9.27015 0.0
-2.8652 6.13615 11.505 0.0
-7.32394 3.61517 18.065069 0.0
-6.321266 7.478883 -6.87315 1.0
-1.66515 -3.2367 1.51 2.0
-3.87045 4.913 0.284875 0.0
3.1784 -0.79305 -3.77815 2.0
8.327807 -9.278571 6.719522 2.0
-2.65634 6.49717 -13.68613 2.0
8.481669 -5.915812 0.893381 2.0
7.089632 -5.310587 0.9031 2.0
9.68225 -11.167774 9.63105 2.0
-6.717533 6.10465 -7.906084 1.0
-2.9964 4.31635 15.65365 0.0
-5.519813 8.30955 -37.270363 1.0
-6.9336 7.74805 4.10815 0.0
-5.713234 6.078783 -36.656982 1.0
-6.105225 5.578626 -28.08675 1.0
4.9837 -10.04035 10.61195 2.0
-3.305 2.66035 -10.39515 2.0
13.2193 -11.15015 8.15865 2.0
-5.4991 5.126104 -19.706251 1.0
-5.9116 5.58045 -36.033749 1.0
5.688712 -7.533726 5.293555 2.0
-6.080433 7.904517 -0.3308 0.0
-5.85095 7.41 -19.528351 1.0
-4.6285 5.83035 -19.727249 1.0
-12.3225 5.34065 33.37265 0.0
7.6664 -3.76635 -1.58425 2.0
8.533674 -5.465912 -0.056263 2.0
1.67989 -6.56023 6.0748 2.0
-4.542366 5.497017 -17.329582 1.0
-4.7849 7.00575 -12.61995 1.0
-7.6227 7.58475 9.33715 0.0
-6.7013 2.8603 25.238825 0.0
-7.285616 6.0966 -26.304251 1.0
-5.098288 7.53005 -9.297213 1.0
-12.7073 4.91785 32.629749 0.0
-6.8995 10.00215 14.73755 0.0
-4.07848 3.91405 15.937129 0.0
-4.6451 3.32685 20.07625 0.0
3.53285 -0.1055 -4.30575 2.0
-7.293537 6.2808 -33.881725 1.0
2.0938 -3.684606 -0.437583 2.0
-3.7298 3.33595 -12.16605 2.0
-5.08015 4.0426 6.8921 0.0
0.3343 -5.074522 3.902479 2.0
-1.8503 -3.66845 2.78415 2.0
-6.270309 7.285014 -21.884768 1.0
7.6872 -7.348404 3.948768 2.0
12.066 -12.63935 12.74605 2.0
-2.154467 2.700217 -10.26155 2.0
6.392 -2.11575 -3.04525 2.0
-5.3266 4.20675 4.34585 0.0
-5.8904 12.341049 -33.560452 1.0
-10.157472 6.703221 23.708208 0.0
4.050583 -9.1208 10.936034 2.0
-5.90525 5.8809 -34.339451 1.0
-5.1591 6.86165 -35.42955 1.0
12.12927 -9.65419 4.73292 2.0
-6.5858 6.94235 -5.54533 1.0
-5.273975 6.08895 -31.130899 1.0
-5.0886 4.30295 -8.49395 1.0
7.118 -6.75385 3.44935 2.0
-5.7295 5.4082 -24.529699 1.0
-6.6041 5.14835 -25.37505 1.0
-9.5349 5.78805 17.959351 0.0
3.4604 -5.84705 2.35165 2.0
-9.482099 3.261617 33.742481 0.0
-4.6643 3.78615 21.41695 0.0
-3.9814 4.26445 15.25245 0.0
-7.0333 1.62775 -12.58665 2.0
-4.7959 3.18915 20.956551 0.0
5.319028 -8.229779 6.692936 2.0
-6.2217 5.79745 -32.445148 1.0
-6.899029 3.858236 14.925093 0.0
11.26234 -8.96587 4.458489 2.0
-6.274067 6.022883 -37.583714 1.0
-4.5839 4.81135 -4.28725 1.0
0.174 5.63385 -11.17015 2.0
-7.14885 6.072713 -32.495781 1.0
5.09616 -1.73017 -2.91913 2.0
-4.9119 6.80185 -14.00185 1.0
-5.29555 4.1138 5.40335 0.0
-7.74814 6.10611 9.952169 0.0
-4.093762 8.299601 3.90055 0.0
-3.8112 5.32215 -3.10265 0.0
8.482534 -10.306149 14.261401 2.0
-4.69105 8.878751 5.53835 0.0
-5.5102 8.56985 -38.62085 1.0
-5.7243 9.429216 -36.711452 1.0
3.29858 -6.504043 4.68813 2.0
-8.503775 7.893175 -37.706253 1.0
-5.72612 7.48887 -33.682968 1.0
-4.1141 -1.1897 -1.7372 2.0
-6.736985 5.701621 -3.265393 0.0
9.63795 -11.986825 11.839725 2.0
-6.8103 7.68385 3.02085 0.0
9.890535 -10.745908 8.279043 2.0
-6.478025 5.985724 -36.4673 1.0
-3.9462 5.64495 10.21395 0.0
1.9152 -1.46505 -3.21505 2.0
6.101471 -5.490736 1.75915 2.0
-7.8549 6.36295 7.53645 0.0
-6.899588 6.119375 -17.678812 1.0
-6.7447 7.912983 5.07475 0.0
-4.497333 3.85585 14.508349 0.0
-4.104662 6.102538 -8.491337 1.0
2.896412 -6.109403 4.101633 2.0
-12.3855 4.87565 34.176498 0.0
3.70574 1.09067 -5.718697 2.0
-7.577567 4.655584 12.290051 0.0
-1.50986 0.90203 -7.31754 2.0
-5.0946 7.7264 -4.1498 0.0
-6.7565 7.38055 -27.691101 1.0
-5.6058 1.27605 -9.55185 2.0
-8.795 3.43935 32.398251 0.0
-6.7562 5.56045 -37.24865 1.0
0.3274 -1.79425 -2.3367 2.0
-6.3951 11.42145 -32.65435 1.0
-7.363725 6.8844 5.46235 0.0
8.5607 -4.05491 -2.44437 2.0
-3.51865 5.517575 0.72335 0.0
-4.1208 7.675734 -0.736967 0.0
-4.5766 8.21125 1.92985 0.0
-1.5479 5.7547 -12.40755 2.0
-4.62 4.62935 -9.79275 1.0
-5.2165 4.01325 -14.07585 2.0
9.510699 -9.63985 6.370521 2.0
6.90005 -4.42535 -0.4116 2.0
3.098534 -8.503216 12.250683 2.0
2.788 -7.26665 5.85335 2.0
-3.5544 5.15075 -3.87065 1.0
0.94406 3.47415 -8.542311 2.0
-7.6065 5.97235 -20.261351 1.0
-6.4769 4.53675 -18.560049 1.0
2.708064 -8.126714 8.882205 2.0
-5.700728 7.308601 -23.123373 1.0
5.9519 -10.41025 12.280149 2.0
-8.079225 6.708125 -38.293503 1.0
1.682667 -5.339683 3.100317 2.0
-4.62155 6.95655 -10.43965 1.0
0.711389 2.306461 -7.881384 2.0
-4.025875 6.103 -7.713175 1.0
-6.67478 6.12471 -9.06785 1.0
-5.1988 5.38015 8.94045 0.0
-5.322567 5.742116 -30.487183 1.0
-7.4927 5.5977 -24.452549 1.0
-6.1305 -0.91445 -1.24045 2.0
9.6964 -8.98445 5.51215 2.0
-4.5727 6.58395 -26.329451 1.0
-8.065144 6.697561 11.684151 0.0
-7.9268 6.48245 -28.237949 1.0
-6.4701 7.292584 -8.123017 1.0
-6.485633 3.639383 16.218184 0.0
-6.515575 5.317 -6.8458 1.0
-5.2871 5.52035 -31.815451 1.0
-7.1303 9.950951 -34.865799 1.0
-8.1969 9.17675 18.014549 0.0
-7.631175 9.28555 -34.717602 1.0
-11.578251 5.0821 30.247126 0.0
-1.066614 3.267435 -9.546992 2.0
-6.06545 8.879582 7.9083 0.0
-4.53705 4.686 -3.07065 0.0
-3.3826 4.56915 11.16865 0.0
-4.508275 4.1783 9.0344 0.0
-1.532257 -4.970693 6.669393 2.0
-6.6078 10.41495 -32.918251 1.0
1.531472 -7.686078 10.525693 2.0
-5.5745 7.72425 -26.36075 1.0
6.09675 -9.7138 8.674725 2.0
0.533075 -6.869112 9.140562 2.0
-3.0416 5.78065 12.20665 0.0
-1.908075 -3.95445 4.294258 2.0
-6.6673 5.27685 -31.415251 1.0
-2.261425 -2.6404 0.54425 2.0
10.690979 -11.909942 10.672043 2.0
-5.1116 7.941383 -2.692706 0.0
-5.901738 3.484175 17.496489 0.0
-8.737326 3.631575 21.674551 0.0
-0.726158 -5.66585 7.327209 2.0
-9.12715 8.078063 21.12685 0.0
-3.951614 7.833707 1.461821 0.0
-6.501472 7.150107 -22.660849 1.0
-5.698175 7.844775 -4.909625 1.0
-6.2208 9.44315 12.25965 0.0
0.474787 2.740304 -8.457936 2.0
-6.6017 6.44245 -12.14425 1.0
-7.0182 6.6961 0.6306 0.0
-7.62145 7.1238 -35.791901 1.0
-6.694153 9.116317 -37.706219 1.0
-6.2403 7.21805 -14.32175 1.0
-4.128 -0.98715 -2.5346 2.0
10.895149 -11.544612 9.673824 2.0
-2.096044 -4.335038 5.679581 2.0
-6.4473 7.61605 -3.51345 0.0
-3.9768 5.49865 -15.79185 2.0
-10.709211 5.887025 25.646461 0.0
-3.46955 6.650425 1.34675 0.0
-11.851 2.19955 38.446949 0.0
-5.9017 8.37059 4.89737 0.0
-5.9126 3.23005 -13.14645 2.0
-4.913337 9.318963 8.678588 0.0
-6.68445 9.2543 13.715 0.0
-8.9602 2.39885 27.89595 0.0
0.116282 4.071332 -9.688287 2.0
-5.3071 4.28595 -9.30025 1.0
-6.91144 5.29439 3.66697 0.0
-7.827466 6.612883 -29.859884 1.0
-6.9536 7.59085 -32.797649 1.0
-2.647933 3.302783 -11.121184 2.0
-4.21085 6.305584 -9.9112 1.0
-7.5616 10.00045 15.88265 0.0
-9.538863 5.695188 20.293701 0.0
-8.509215 8.900725 18.889215 0.0
7.917371 -5.047128 -0.10005 2.0
-5.495333 3.292894 22.116051 0.0
-5.6782 3.3289 19.88555 0.0
8.480105 -8.732872 5.687589 2.0
-9.6441 2.97265 27.008949 0.0
6.0028 1.27205 -5.64625 2.0
-7.1991 2.57455 -13.44505 2.0
-3.737667 5.49175 -5.26705 1.0
-5.7015 9.32375 10.904275 0.0
-5.504414 5.33345 -23.703619 1.0
-3.6399 -2.09045 0.39465 2.0
-6.5784 6.98845 -4.70345 1.0
-6.1153 5.65227 -29.317709 1.0
-4.271519 2.251213 -10.097732 2.0
-7.527926 5.475425 8.641525 0.0
-4.060834 5.294384 -7.05825 1.0
-5.097444 3.500006 18.687893 0.0
-4.67695 4.18975 -15.6535 2.0
-3.24834 -3.49997 4.70189 2.0
-6.7003 8.86215 -38.552002 1.0
-7.2118 5.89305 -11.63725 1.0
-6.902425 7.476125 1.67625 0.0
-8.74285 3.2329 23.722425 0.0
-6.482767 2.637067 -13.112717 2.0
-5.720133 8.568316 5.669716 0.0
-4.4238 5.74005 -11.64825 1.0
-7.8827 5.99625 9.12075 0.0
-0.336738 0.341938 -6.059387 2.0
12.495872 -10.526978 7.284935 2.0
-5.85042 6.48135 -38.076092 1.0
-6.898767 5.912966 0.289867 0.0
-7.0716 2.91835 26.877548 0.0
2.501945 -8.07205 10.087795 2.0
-6.483317 4.526934 4.725567 0.0
-2.47614 -3.27377 2.95533 2.0
4.08885 -6.742317 4.678577 2.0
1.493928 -3.317289 -0.521633 2.0
5.289411 -3.94587 -0.17025 2.0
-7.2296 6.8054 -26.68915 1.0
-1.5725 6.81195 -13.07065 2.0
-7.54308 2.94183 28.539028 0.0
-6.0012 4.77145 -2.78735 0.0
-0.289814 1.479121 -7.119007 2.0
2.3324 -7.675717 7.556917 2.0
-7.31736 6.29631 -25.53175 1.0
-7.33335 6.485033 6.100851 0.0
-5.7535 11.45675 -32.293449 1.0
-3.62705 6.335125 -3.298125 0.0
-10.6105 4.00155 27.30755 0.0
10.8822 -12.05235 14.10965 2.0
0.9207 -4.682 1.97795 2.0
-6.46435 5.26035 -17.129101 1.0
-6.14025 8.82775 -39.051102 1.0
10.289457 -9.866607 6.555493 2.0
3.2203 1.99545 -6.63445 2.0
-10.111667 2.820333 33.491535 0.0
4.906327 -0.698459 -3.887732 2.0
-3.932467 4.352983 10.234183 0.0
-11.22295 2.81805 37.55415 0.0
-7.5098 7.76795 6.81075 0.0
-6.501622 3.449239 18.298805 0.0
-6.6942 7.30595 -26.309849 1.0
-10.3787 2.927517 36.294483 0.0
4.94075 -9.64645 12.68165 2.0
-5.0419 9.226884 7.834316 0.0
-6.1907 7.50455 -17.245251 1.0
-6.695867 3.35885 19.244184 0.0
-6.313117 7.387167 -25.102852 1.0
-5.098267 9.07045 6.779083 0.0
-7.720075 7.3048 -32.710999 1.0
-7.6356 6.35315 -23.45665 1.0
-3.1286 4.3287 14.3332 0.0
-8.219 7.96675 14.39145 0.0
-7.86265 3.92705 16.721649 0.0
-5.2979 -0.93175 -1.52195 2.0
-7.4862 7.1057 -27.380051 1.0
-6.8906 6.37355 -16.99295 1.0
-5.145475 7.250051 -19.2778 1.0
7.492727 -8.88625 6.730314 2.0
-4.726 4.48395 -0.05355 0.0
-6.33915 4.9209 -22.43095 1.0
-5.74315 7.23255 -35.2794 1.0
-3.308187 2.888513 -11.094438 2.0
-6.8016 5.61715 -4.93945 1.0
6.3471 -8.2206 6.1529 2.0
-5.7616 10.03125 -35.900848 1.0
8.274215 -3.325207 -2.919493 2.0
3.3434 -8.85165 10.78345 2.0
12.04034 -9.78621 5.45469 2.0
11.05585 -8.5931 3.61095 2.0
-5.12935 5.9024 -27.725899 1.0
-6.8123 5.65845 -2.17905 0.0
-6.502317 5.348816 -20.768751 1.0
-4.2268 4.44585 1.37475 0.0
-6.661933 6.279094 -13.711705 1.0
-6.512975 5.2631 -28.7526 1.0
-4.816367 6.567417 -22.335283 1.0
9.898375 -12.462299 13.301125 2.0
-3.517029 7.30715 0.477407 0.0
7.89885 -4.33774 -1.142505 2.0
-4.8559 3.71145 22.076651 0.0
-8.257972 5.890179 13.118535 0.0
-3.466934 5.885984 -14.715449 2.0
3.97545 -8.4087 7.5206 2.0
-4.2443 4.08655 6.42935 0.0
12.108334 -9.243783 3.369883 2.0
-5.9423 7.42995 -32.901886 1.0
0.8888 1.515219 -7.023058 2.0
-9.54712 7.71873 22.581411 0.0
-6.286161 7.27979 -11.09261 1.0
-7.317875 6.307325 -28.505749 1.0
-4.6043 5.70175 -18.81505 1.0
10.0616 -6.2356 -1.06415 2.0
-2.89377 -2.45706 1.10882 2.0
-2.1593 4.08145 -11.16265 2.0
-6.4605 7.22445 -20.85055 1.0
-5.06915 6.35155 -29.76215 1.0
-11.8657 3.00295 37.30085 0.0
-6.34096 7.72345 0.65689 0.0
7.0812 -10.98655 12.06045 2.0
-7.28135 7.91065 -34.8708 1.0
-3.893343 1.846 -9.125415 2.0
-4.2794 4.72805 -7.46495 1.0
-6.70865 5.34195 -24.283348 1.0
-2.935525 6.705437 6.921513 0.0
-7.1307 4.99995 7.41055 0.0
-5.5165 5.540717 -27.101517 1.0
-5.1971 10.74215 -34.21175 1.0
-7.2043 6.65145 -21.51705 1.0
-9.511461 3.662258 23.885273 0.0
-8.8614 6.04365 13.63415 0.0
-5.9798 5.17485 -7.32725 1.0
-7.44384 6.89247 6.89179 0.0
1.0468 -3.98955 0.84375 2.0
-10.0755 8.162116 24.85305 0.0
2.1124 -8.054183 10.690849 2.0
7.34036 -1.683137 -3.84575 2.0
-5.28542 7.06905 -25.667049 1.0
2.084226 4.305539 -8.656818 2.0
-6.4542 7.23405 -9.87785 1.0
-3.14574 4.91205 11.918671 0.0
-8.683271 7.293536 17.068691 0.0
-4.9187 4.311775 3.117175 0.0
-6.0057 11.47165 -33.93465 1.0
-3.7034 4.042283 18.303917 0.0
4.2058 3.08585 -6.87555 2.0
-1.528017 0.44865 -5.920416 2.0
-3.3152 5.776017 -1.89655 0.0
-4.5856 6.33665 -14.95715 1.0
-8.518499 2.67631 28.894648 0.0
-5.9254 12.70005 -32.87085 1.0
7.2479 -10.40025 14.00875 2.0
7.15235 -2.836975 -2.457225 2.0
-4.5494 5.83875 -22.79505 1.0
-3.2791 3.9201 -13.1621 2.0
-4.84896 5.307231 11.67713 0.0
-6.493027 3.475468 -14.314151 2.0
-7.114 6.319362 -22.468224 1.0
-9.0594 7.73555 -37.349751 1.0
-4.751575 7.630075 -6.515625 1.0
-6.6928 5.49915 -14.53605 1.0
-6.8431 6.47635 -15.7126 1.0
-5.9016 8.274825 3.884175 0.0
-8.4964 2.91425 24.266998 0.0
-4.6738 6.77885 -24.625851 1.0
-3.552 4.86495 5.38595 0.0
-6.080575 5.703675 -30.778175 1.0
-6.919075 9.100326 13.085074 0.0
-4.3547 4.9284 -16.474201 1.0
-10.7589 7.5226 28.060551 0.0
-5.32485 3.707175 13.323799 0.0
-2.7264 5.21705 12.44285 0.0
-7.110933 3.291083 20.226217 0.0
-5.2997 7.70475 -21.37155 1.0
-6.9891 5.51515 -38.970451 1.0
-1.457025 2.62045 -9.072325 2.0
-4.975 6.90395 -32.32975 1.0
-4.90298 0.62795 -7.51275 2.0
-2.693833 4.88595 -12.879317 2.0
-5.11696 3.16583 -12.68943 2.0
-3.932271 3.959929 -14.532777 2.0
-7.4741 5.11615 -16.80125 1.0
1.0936 -1.59695 -2.76215 2.0
-3.123925 6.047525 5.7438 0.0
10.888467 -10.891478 8.280604 2.0
-6.726275 7.702475 -30.499924 1.0
5.4047 -9.39005 13.28765 2.0
-7.1565 0.50025 -9.32625 2.0
0.53416 -0.54387 -4.32847 2.0
-3.6124 4.13735 17.43475 0.0
-7.243734 3.82625 -15.358917 1.0
-3.8998 7.87015 -15.62035 2.0
-5.1564 7.22285 -13.50445 1.0
-6.5506 6.55335 -14.94815 1.0
-11.28694 2.62875 36.30965 0.0
-4.060728 7.730264 0.716579 0.0
-4.8585 4.77045 12.95865 0.0
-4.662283 -0.546083 -3.745417 2.0
-4.305286 4.913578 10.930136 0.0
4.1977 -9.45465 9.58035 2.0
-1.095271 -1.321237 -2.883925 2.0
-3.7746 4.76425 2.65045 0.0
-5.5203 7.47725 -12.13955 1.0
-6.92485 -0.18405 -6.56995 2.0
-3.46185 4.37655 8.90205 0.0
-4.6285 6.65375 -26.992451 1.0
-5.36445 3.46525 23.467999 0.0
-8.8018 7.93735 18.58975 0.0
9.088177 -10.498903 8.498011 2.0
-3.6983 5.50301 -0.86581 0.0
-6.7343 9.61105 -34.069851 1.0
-7.43665 7.03915 -29.524551 1.0
-3.9571 5.22945 9.61845 0.0
4.131638 -6.251725 3.512162 2.0
1.6299 -5.55575 3.82375 2.0
13.10515 -10.9177 7.5442 2.0
1.1051 -0.170475 -4.754125 2.0
12.494166 -11.377418 9.469517 2.0
-4.4571 6.3312 6.50035 0.0
-10.0146 2.73755 30.720449 0.0
-5.5637 4.5006 -15.4776 2.0
7.7397 -9.62975 7.82565 2.0
-7.5447 5.97925 -19.49925 1.0
-4.322133 4.34625 5.491283 0.0
-8.5922 8.05655 -36.410648 1.0
-8.0104 9.87745 17.05245 0.0
-7.9253 3.62305 19.462851 0.0
-9.390925 6.708525 19.874701 0.0
-1.0938 4.85225 -11.181 2.0
-5.914067 7.92005 -2.5329 0.0
-7.6355 6.08155 -21.084351 1.0
7.878151 -11.0936 13.123633 2.0
-7.24975 6.7496 3.9312 0.0
-7.70215 2.8455 24.255501 0.0
-6.886775 5.49675 -21.29335 1.0
-5.90635 7.37595 -24.06875 1.0
-11.349851 4.486434 30.0653 0.0
2.9034 -8.50495 11.304567 2.0
-5.306455 -0.444314 -4.702968 2.0
-6.998 8.17185 8.18195 0.0
-2.089476 -4.649783 6.512179 2.0
-7.733633 3.020117 21.064352 0.0
-3.4167 6.22775 -0.34885 0.0
-6.1826 6.95835 -15.97165 1.0
-9.505199 6.882399 21.070217 0.0
-6.70642 6.11029 -6.48611 1.0
-5.0852 8.22295 0.69889 0.0
-1.4821 -5.21497 7.281591 2.0
4.8509 -5.205 1.59135 2.0
4.299861 -2.30697 -2.248765 2.0
-11.02075 4.9356 27.679199 0.0
2.87282 -4.95416 1.50572 2.0
-6.2163 5.55995 -39.109848 1.0
-5.38355 7.4393 -20.69775 1.0
-11.5386 2.92715 38.860851 0.0
1.684933 3.323842 -8.113275 2.0
-6.7889 5.41915 1.06735 0.0
-5.503786 1.844236 -10.768707 2.0
-6.0656 4.6317 2.49835 0.0
-7.3825 6.61075 -32.883652 1.0
-7.45285 5.73555 -17.474751 1.0
-4.4235 5.55945 -10.56375 1.0
-7.555233 4.158701 -16.074133 1.0
-7.69898 2.69159 26.32893 0.0
-7.8144 3.38895 18.509951 0.0
-8.7085 2.7435 26.646349 0.0
-3.9725 3.46955 18.63855 0.0
-3.226738 5.682738 4.685025 0.0
-11.3455 2.79325 34.123852 0.0
-9.182443 6.927807 19.043535 0.0
9.510675 -5.250975 -1.88565 2.0
4.702616 1.460329 -5.737149 2.0
-3.7105 6.54335 -6.55725 1.0
0.94818 1.07251 -6.34459 2.0
-11.724837 6.110962 30.501837 0.0
-4.146 8.76785 7.44955 0.0
-2.67665 -4.04725 5.55985 2.0
-7.13892 5.69815 6.478171 0.0
-2.434867 1.784117 -9.240716 2.0
-5.44876 9.47507 -35.29351 1.0
-4.060633 7.291706 -3.270661 0.0
-3.88885 3.6914 13.908501 0.0
-4.272633 -1.482884 -1.136383 2.0
-6.929075 5.48635 -17.8543 1.0
0.106973 -3.319363 0.089917 2.0
-7.1111 0.78945 -10.12365 2.0
-6.686933 5.299583 -26.892916 1.0
-4.47596 4.29765 16.51977 0.0
-5.24615 7.65465 -10.0495 1.0
-5.878388 4.5635 -16.297213 1.0
12.8915 -12.00885 10.63605 2.0
-6.68636 7.50471 -1.69937 0.0
-6.552 5.41035 -32.98555 1.0
-6.5459 5.13985 -27.89465 1.0
-4.4655 6.07265 -18.26935 1.0
9.109613 -10.899813 9.476657 2.0
-5.2863 3.54812 16.89171 0.0
-5.4969 7.111033 -28.9396 1.0
-5.5234 4.17235 1.61995 0.0
-12.4444 3.42285 36.447151 0.0
-8.977183 7.543483 19.085798 0.0
-8.249 7.11935 -37.309551 1.0
-5.5018 -1.45265 -0.9401 2.0
-4.8995 6.936684 -17.334949 1.0
-4.517375 9.03495 6.2767 0.0
-7.415033 4.57175 11.13325 0.0
-5.7194 9.093116 -37.4813 1.0
-7.484045 7.489078 8.118804 0.0
-10.16775 5.293975 23.291176 0.0
-3.670175 6.97795 -1.5522 0.0
-9.8962 5.504305 22.08264 0.0
-6.10878 8.90835 8.884931 0.0
-6.0771 2.68445 25.217649 0.0
5.3058 -10.2245 9.66515 2.0
-10.0961 5.56435 20.851351 0.0
-0.715347 2.321238 -8.476321 2.0
-9.3161 8.61135 23.74015 0.0
-6.871275 6.719325 -1.303725 0.0
-6.8404 5.17545 -1.63495 0.0
-7.16065 6.10345 -23.087975 1.0
-3.848433 4.71245 6.298234 0.0
-8.73905 8.663137 19.671812 0.0
5.1066 -10.05321 11.33611 2.0
-5.110444 1.530385 -9.881803 2.0
-3.7837 6.6543 -4.50505 1.0
0.078064 5.120222 -10.754749 2.0
-6.75775 6.1021 -2.65285 0.0
8.6855 -11.928083 13.321494 2.0
11.512709 -8.472827 2.337827 2.0
-6.922834 7.85835 -33.705853 1.0
-9.1045 2.49505 33.078049 0.0
-7.5749 7.05915 -28.409149 1.0
-6.295475 -0.841825 -2.0574 2.0
-6.301233 5.263416 -12.311482 1.0
-6.291982 3.636759 15.146042 0.0
-5.46401 7.10043 -30.481043 1.0
-5.900882 2.303806 -12.088487 2.0
-8.381801 8.548917 17.685751 0.0
-6.508328 3.514207 16.908108 0.0
-6.0692 5.1544 -18.731949 1.0
3.922113 -9.063356 12.08053 2.0
-8.832434 6.085017 16.518333 0.0
-0.105717 -0.9686 -3.533983 2.0
-4.2783 4.21695 3.39645 0.0
8.705829 -11.233935 10.527207 2.0
2.918012 -5.428987 2.49565 2.0
1.71715 -7.44035 8.47765 2.0
-5.1676 5.44005 -29.132151 1.0
-7.7635 2.96185 29.536249 0.0
-7.888809 9.113504 -36.855183 1.0
-5.181 5.34735 -28.44825 1.0
-3.2909 6.291173 3.511694 0.0
-12.087601 2.8908 36.511326 0.0
8.285746 -10.897968 14.070996 2.0
-4.41125 7.269 -16.09095 1.0
-4.2771 4.14375 4.44695 0.0
-7.811 7.23225 -33.677952 1.0
6.500164 -6.760705 3.650877 2.0
9.113137 -5.680596 -0.295087 2.0
-4.486788 3.718225 -13.507549 2.0
-6.5329 7.37245 -34.803452 1.0
-0.2798 -1.634583 -2.474283 2.0
-7.560345 6.698339 8.090173 0.0
10.705548 -10.34135 7.272817 2.0
-6.73725 5.80735 -29.78105 1.0
-5.31805 7.343133 -22.483269 1.0
-6.0572 9.79775 13.64905 0.0
-7.4027 6.70515 -30.332649 1.0
-5.3764 3.02625 22.916149 0.0
2.938967 -4.385217 0.646583 2.0
-6.0597 5.02995 -11.05465 1.0
-3.9174 5.6573 8.967 0.0
-7.2449 5.516883 -22.097849 1.0
-5.9564 4.42975 3.86865 0.0
-6.291334 7.927583 -29.958784 1.0
-7.058933 5.901884 -35.736217 1.0
7.8922 -10.59805 9.83325 2.0
0.297241 -2.714738 -0.901544 2.0
-8.782275 5.292749 17.055775 0.0
-8.130125 2.74595 25.434725 0.0
-9.833201 2.65935 34.80175 0.0
-7.3058 3.47535 17.359118 0.0
-10.678851 3.330037 30.527514 0.0
-10.3672 7.17285 25.214849 0.0
-10.3927 4.83055 24.89455 0.0
3.480638 2.9509 -7.061513 2.0
-6.26415 7.82165 -28.569349 1.0
-5.510575 4.105825 6.075675 0.0
-9.250825 8.272425 22.462475 0.0
3.13115 -8.640024 10.072001 2.0
-5.492575 8.12725 -0.445987 0.0
-5.1808 4.62765 -16.81135 1.0
-7.4158 6.17515 1.58265 0.0
6.2587 -10.56825 10.257216 2.0
0.287811 -6.348683 7.897261 2.0
-3.0459 5.74975 7.055216 0.0
-9.409733 3.35865 24.887283 0.0
3.889125 1.696619 -6.077319 2.0
-5.55445 3.27235 24.105 0.0
-7.481283 8.489934 -35.109287 1.0
6.8541 -10.98425 11.29245 2.0
5.09605 -7.753487 6.067788 2.0
-7.845383 5.704016 10.4958 0.0
-6.6647 5.34835 -15.34015 1.0
9.74925 -11.627399 10.59305 2.0
0.4321 -4.17145 1.60825 2.0
-7.5429 5.66035 -25.10535 1.0
5.489317 0.291742 -4.715392 2.0
-10.486 7.90555 25.602949 0.0
-5.1146 6.39015 -33.351952 1.0
-3.738466 4.736017 7.45655 0.0
-6.1562 -1.04795 -3.12675 2.0
-4.3891 6.51505 -21.08005 1.0
6.3758 0.82365 -5.39415 2.0
-4.64995 5.1718 8.24915 0.0
-0.092018 -4.45552 2.886697 2.0
5.2958 -6.760078 4.079564 2.0
-4.4303 5.21335 -9.247049 1.0
-6.516483 4.35435 6.924866 0.0
11.735128 -12.101293 11.294179 2.0
-11.098949 5.708125 27.862324 0.0
5.50975 -10.28459 10.89935 2.0
-8.546875 4.883225 16.632751 0.0
8.4591 -12.20975 12.45025 2.0
-2.874271 1.583336 -8.457149 2.0
-0.911007 -3.52045 1.512764 2.0
-3.56575 7.08445 2.706425 0.0
3.2511 -8.24645 7.34765 2.0
2.6149 -5.59355 3.27095 2.0
1.907534 1.885454 -7.041536 2.0
-8.447413 6.682251 14.29788 0.0
-7.492233 8.606984 -39.311085 1.0
2.47648 -7.956551 9.44633 2.0
10.906651 -9.157233 5.241884 2.0
-5.0664 6.97235 -29.928049 1.0
2.897014 -7.455193 6.544507 2.0
-5.499371 3.910264 10.6714 0.0
-3.9166 -2.52335 3.85545 2.0
-0.727617 -4.370167 3.668533 2.0
5.52564 -3.21711 -1.27281 2.0
-4.9075 5.44853 10.33886 0.0
-1.860767 1.904617 -8.52245 2.0
-2.9924 5.70875 7.68905 0.0
-4.68935 7.132101 -11.102267 1.0
-11.93666 6.09145 31.942768 0.0
-8.184915 6.300421 12.299349 0.0
-3.836 4.81465 12.21945 0.0
-6.5195 5.39905 -34.924049 1.0
12.503098 -10.318023 6.690651 2.0
-5.266856 0.840712 -8.534049 2.0
-4.29596 3.715 17.296959 0.0
-6.7687 9.37245 -36.745251 1.0
-7.6618 6.23275 -24.280649 1.0
-1.691117 -2.9147 0.8958 2.0
7.296472 -6.541194 2.885921 2.0
1.9106 -2.724675 -1.559438 2.0
4.3714 0.22105 -4.57225 2.0
10.103435 -8.282983 3.903011 2.0
-12.57 4.44105 34.941849 0.0
-3.27582 6.89099 4.50063 0.0
-6.106466 8.080067 1.930633 0.0
-4.505233 -1.709428 1.10675 2.0
-3.5993 8.42215 5.06035 0.0
-10.42214 5.70603 24.15839 0.0
-1.499275 -3.899591 3.517233 2.0
-5.0887 7.16055 -15.504983 1.0
-7.316425 6.505525 -27.324551 1.0
-1.107925 -0.379975 -4.290875 2.0
-6.69143 3.07294 21.920052 0.0
-7.0224 9.13435 -34.355148 1.0
-5.890775 3.880362 11.29895 0.0
4.710433 -9.10635 8.293884 2.0
-5.772633 7.30735 -38.119183 1.0
-3.38015 5.877225 2.0684 0.0
-3.55255 4.29255 8.06605 0.0
-9.0239 2.9249 31.709049 0.0
-7.363 8.55995 14.15425 0.0
-6.71535 7.294525 -25.685135 1.0
-3.570833 7.47305 3.476983 0.0
-6.460233 4.140383 8.146367 0.0
-9.359784 4.487267 20.906034 0.0
2.884478 -7.911823 7.728361 2.0
-4.71246 8.471689 3.68801 0.0
-5.479539 5.22493 -21.08223 1.0
-7.96965 6.6242 -31.522049 1.0
11.523688 -9.910117 6.462561 2.0
-3.656 3.55485 16.294649 0.0
-6.921 5.708283 -27.693983 1.0
-2.5521 5.26505 13.37495 0.0
-6.1612 7.90795 -27.602949 1.0
6.095254 -10.285704 9.711882 2.0
-5.7716 7.57665 -5.46775 1.0
-4.0719 4.58915 13.52245 0.0
-3.6397 5.63735 -4.46995 1.0
-10.071674 7.939925 26.074799 0.0
-5.90585 7.508833 -20.331034 1.0
-8.222 6.28895 9.5909 0.0
-9.06025 4.31682 19.878119 0.0
-7.6027 7.46905 -31.487551 1.0
4.2416 -9.18675 11.525049 2.0
-4.72476 2.34853 -10.868429 2.0
4.1297 -9.14335 13.02555 2.0
2.3535 3.06985 -7.32485 2.0
-7.3064 9.108194 14.912395 0.0
-9.148667 5.69235 18.497665 0.0
-7.762425 7.909675 11.48995 0.0
-10.631117 6.695483 25.926201 0.0
-3.295 5.36755 2.89535 0.0
4.311646 2.133559 -6.27316 2.0
-2.305717 -2.106783 -0.679067 2.0
4.0918 -7.37725 5.84635 2.0
-4.498157 -1.491964 -0.235036 2.0
-5.1752 7.249975 -23.503326 1.0
-7.2225 6.02115 -5.30165 1.0
-3.0689 4.84925 13.26265 0.0
8.454849 -7.152775 3.06285 2.0
6.2684 -10.17875 12.76225 2.0
-6.92854 5.67867 -25.73521 1.0
-7.0693 5.93015 -4.46915 1.0
-5.868875 3.469325 -13.718088 2.0
-8.5204 5.49465 15.121284 0.0
-10.338966 3.889628 26.719114 0.0
-5.7511 4.4984 -0.7349 0.0
-2.89515 5.88335 8.9095 0.0
10.094728 -11.895593 14.288878 2.0
6.8589 -7.5676 4.8168 2.0
-6.3044 4.90615 -23.353451 1.0
-9.645575 8.054501 23.916899 0.0
-4.7804 5.56405 -20.265751 1.0
7.283967 -10.915467 12.9392 2.0
-7.2075 6.45895 -24.91935 1.0
2.295767 -8.136761 11.27955 2.0
0.910583 -5.4334 4.041267 2.0
-6.480133 5.369684 -8.473083 1.0
-7.368625 4.033775 15.28745 0.0
-5.5379 -1.2328 0.2894 2.0
8.52795 -8.4338 5.1362 2.0
-5.0189 6.554949 -25.902718 1.0
-2.909673 -1.368605 -2.119668 2.0
-5.7082 5.04505 -17.718451 1.0
-3.6476 5.00375 3.86525 0.0
-3.7996 5.60665 8.36255 0.0
-0.1477 2.79695 -8.81045 2.0
8.735967 -10.042518 7.753784 2.0
-10.0486 6.500183 22.750351 0.0
-5.7848 10.543051 -33.5895 1.0
0.70855 -1.71385 -3.23875 2.0
-6.897833 0.117183 -7.856316 2.0
8.509238 -4.681461 -1.283522 2.0
-2.38595 1.687 -7.89305 2.0
-7.132 5.48735 -20.10545 1.0
-3.312286 -1.918222 -0.098393 2.0
-6.29775 5.4286 -24.767349 1.0
-3.27838 2.05693 -9.14813 2.0
-4.74686 6.12401 -24.302723 1.0
-10.307434 6.880533 24.540533 0.0
3.304767 -5.981751 3.649017 2.0
-6.0679 7.52625 -32.067726 1.0
-9.925 2.44015 32.030849 0.0
-5.1187 7.82555 -5.531925 1.0
-4.9447 6.77675 -28.220751 1.0
-7.653167 6.51735 8.888833 0.0
-8.247251 7.874617 15.916533 0.0
-1.294064 -1.870645 -1.896823 2.0
-6.681133 6.65445 -19.660749 1.0
-6.7293 7.086678 -21.528452 1.0
-5.51704 7.27895 -27.649271 1.0
-6.1419 10.39985 -34.135349 1.0
-4.3239 5.09935 14.22935 0.0
-7.878545 5.515968 11.095814 0.0
-6.569334 -0.896317 -4.684516 2.0
