# .PCD v0.7 - Point Cloud Data file format
VERSION 0.7
FIELDS x y z label
SIZE 4 4 4 4
TYPE F F F U
COUNT 1 1 1 1
WIDTH 1529
HEIGHT 1
VIEWPOINT 0 0 0 1 0 0 0
POINTS 1529
DATA ascii
12.25705 5.67855 -13.86775 1.0
-12.82015 1.25635 29.992201 0.0
16.09605 -3.931833 -5.056383 1.0
-1.03605 10.65575 1.1426 0.0
-0.00655 5.64895 -23.0156 1.0
6.07225 -2.16855 -1.0907 1.0
-14.25975 -10.60995 45.0989 0.0
2.16875 9.26185 -38.855301 2.0
-6.66435 5.48405 16.78285 0.0
20.71583 -9.452769 3.90982 1.0
12.49415 0.31645 -9.3449 1.0
15.089265 -5.555786 -1.7407 1.0
7.07495 -0.961583 -6.357567 1.0
0.47505 7.22165 -10.6486 0.0
-4.501684 5.517067 11.532333 0.0
-7.57055 8.065192 16.900515 0.0
-9.476822 5.095721 22.900671 0.0
-16.704449 -11.87193 45.119377 0.0
1.84755 2.6905 -15.335225 1.0
-0.48785 9.69845 -43.608898 2.0
15.303139 -8.2946 3.0884 1.0
3.46145 7.18335 5.52285 0.0
21.094387 -7.542414 -0.472207 1.0
-3.580716 7.10195 6.694666 0.0
12.31595 -0.8447 -8.0299 1.0
13.880034 -7.041916 0.892058 1.0
2.15263 9.90129 -34.910378 2.0
0.58755 8.36845 -32.118 2.0
-11.908757 -6.884227 38.483341 0.0
13.706388 -5.422213 -1.460075 1.0
-13.044316 4.28625 28.0728 0.0
-0.4582 12.942499 -49.096249 2.0
-13.486409 1.507143 30.864565 0.0
1.094325 6.731575 -22.324474 1.0
12.49825 3.28075 -12.40745 1.0
-0.68215 10.65765 -0.54595 0.0
2.0848 5.4548 4.2771 0.0
17.119385 -5.458117 -3.2375 1.0
-0.295961 9.924617 -12.506211 0.0
0.10019 10.711571 -2.49408 0.0
2.0395 8.06205 5.505125 0.0
-18.325251 -4.66905 41.418598 0.0
2.81365 8.102984 -23.455667 2.0
2.25985 8.37735 -30.3354 2.0
-17.506775 -6.0807 40.658676 0.0
-0.10235 8.69571 -27.24588 2.0
-18.336468 -9.131365 43.124943 0.0
1.87285 15.522749 -46.550781 2.0
16.871651 -4.283 -4.77685 1.0
-2.673879 8.900779 2.910128 0.0
0.69285 9.041116 -41.943432 2.0
1.27935 8.52765 -38.0 2.0
-0.282725 10.852924 -45.860775 2.0
2.45695 9.79475 -44.770901 2.0
1.65455 2.77455 -16.033001 1.0
-0.2877 10.04825 -38.704353 2.0
2.30685 4.84917 8.467879 0.0
-0.83325 8.23645 -11.3986 0.0
0.63245 7.38725 -23.7348 2.0
2.1809 12.3358 -51.28875 2.0
1.69965 10.56307 -5.54072 0.0
2.96785 4.47305 11.1389 0.0
-5.66725 4.1327 17.049099 0.0
1.752117 10.506717 -6.1208 0.0
1.47965 10.05325 -15.609 0.0
4.3023 6.13345 -19.501701 1.0
1.918564 8.085593 15.882087 3.0
0.49015 5.5148 1.86225 0.0
4.94875 8.68845 -19.6768 1.0
-4.7132 -0.23675 25.68355 0.0
-0.01525 9.21475 -40.439701 2.0
-6.275667 -1.1696 28.897165 0.0
-1.452963 -0.84227 23.936522 0.0
14.64015 -6.94015 5.53145 1.0
1.76115 13.00475 -50.398701 2.0
4.15325 3.0423 -13.71315 1.0
-8.14265 5.43255 20.08695 0.0
-10.073414 3.301486 24.756828 0.0
9.48345 6.333183 -15.278916 1.0
2.24545 8.43665 -35.0495 2.0
12.126801 3.96755 -12.7096 1.0
1.94895 7.931116 10.078033 3.0
13.481383 -3.90545 -3.923833 1.0
-5.35045 2.627717 19.848867 0.0
-4.6971 3.132737 17.514288 0.0
-17.855389 -7.49523 41.495422 0.0
0.9485 12.9089 -50.173599 2.0
-19.488192 -10.919415 45.304794 0.0
18.111183 -8.041083 0.759133 1.0
-18.717966 -12.059451 45.733566 0.0
15.914226 -6.50485 -0.490933 1.0
0.88715 11.68575 -48.878101 2.0
9.70081 6.92351 -15.35986 1.0
-11.241472 1.962605 27.307789 0.0
4.14925 6.083467 23.897264 3.0
0.908864 8.901721 -44.513145 2.0
-5.081267 -3.5576 33.467915 0.0
2.83405 7.40015 14.7489 3.0
-0.45825 9.8821 -11.71825 0.0
-9.296142 -2.079641 31.512154 0.0
12.06945 4.77445 -13.4105 1.0
-9.52175 4.69103 23.26082 0.0
-20.758583 -13.781449 48.038403 0.0
2.60605 9.30145 -30.10005 2.0
-17.242949 -5.311675 39.933876 0.0
-5.299595 -3.267868 32.702038 0.0
1.12757 11.520551 -49.289318 2.0
-3.8904 7.49435 7.2406 0.0
-1.1004 6.18155 -1.710133 0.0
-10.83595 4.85505 24.559799 0.0
21.8363 -7.7597 -0.1801 1.0
1.49655 8.286776 -29.713549 2.0
-0.20115 2.68485 12.5895 0.0
-2.497859 2.104959 17.490965 0.0
-15.82405 -11.58095 46.119099 0.0
-20.719326 -13.320725 47.657005 0.0
1.701175 8.472699 -32.274151 2.0
-1.8853 3.9473 9.906467 0.0
5.62785 2.81425 -12.7683 1.0
19.910177 -9.377007 3.550029 1.0
-4.7548 2.04815 20.68815 0.0
-9.087775 -4.92305 36.039875 0.0
-1.70203 0.26254 21.499001 0.0
-7.9196 -3.37445 33.456802 0.0
-5.88086 2.92166 19.912149 0.0
4.921467 5.898317 28.070932 3.0
4.018783 0.15005 -7.522633 1.0
5.484583 7.462433 -18.535185 1.0
-3.42765 3.983483 12.223866 0.0
2.120487 8.104625 19.712288 3.0
5.892117 2.09805 -11.692333 1.0
2.36165 12.84785 -50.5909 2.0
3.109325 6.311025 -20.686676 1.0
-15.87555 -8.622601 40.661598 0.0
3.97455 6.17295 23.0126 3.0
-20.505583 -14.106769 48.27615 0.0
-5.13267 0.63705 24.487499 0.0
0.20665 8.16615 -22.563101 2.0
-4.95596 9.91141 10.878779 0.0
15.705862 -6.748306 0.06095 1.0
-8.02975 6.905225 18.659302 0.0
2.89275 2.43655 -13.095 1.0
-3.23175 5.01945 8.9612 0.0
13.60605 4.35635 -13.0997 1.0
1.510333 8.438116 17.680183 3.0
13.893464 -0.258779 -9.283885 1.0
12.77965 -0.33525 -8.5969 1.0
-0.051525 9.548625 -45.310623 2.0
-1.90525 8.52105 -3.0076 0.0
14.70609 -2.70361 -6.11774 1.0
19.090925 -8.92088 2.326165 1.0
3.318396 5.31149 18.492794 3.0
2.475936 6.319111 10.087669 3.0
-10.822583 0.524083 28.542566 0.0
-14.108715 -5.521705 37.039749 0.0
2.090436 9.28645 -43.30526 2.0
1.3343 7.36215 -22.707451 1.0
-17.670107 -6.68585 40.917133 0.0
-7.51245 -1.19755 29.912901 0.0
-0.0436 9.494224 -27.469875 2.0
-7.29095 -5.66295 36.869202 0.0
12.87625 4.83435 -13.5043 1.0
1.20995 11.75275 -46.983299 2.0
-0.306733 8.667216 9.514533 3.0
-0.16625 10.77025 -0.827 0.0
14.054382 3.618783 -12.885066 1.0
-1.97085 7.892913 -2.488994 0.0
-9.7115 -3.0894 33.156548 0.0
-9.902439 1.899183 26.111343 0.0
10.4935 4.5735 -13.69415 1.0
-2.2315 8.52415 -1.251 0.0
-2.529261 5.253417 5.104933 0.0
1.969117 8.689549 -19.097033 2.0
-8.724125 6.517963 20.691925 0.0
-2.05695 6.07975 -0.9728 0.0
-13.18275 4.04785 28.940701 0.0
2.2854 9.713218 -3.718617 0.0
10.915105 -5.294935 -0.104608 1.0
1.90435 8.255779 20.285313 3.0
-9.374476 5.85355 22.459476 0.0
0.86825 8.46985 -35.373402 2.0
-8.091936 -2.742022 32.449699 0.0
16.722836 -7.454979 0.714 1.0
2.42845 8.688049 -25.533199 2.0
1.82645 11.04975 -43.094299 2.0
13.92965 -2.68435 -6.03635 1.0
-0.2368 12.50485 -48.336548 2.0
9.2389 4.7354 -14.428101 1.0
1.67835 7.681683 -13.4826 0.0
-1.095925 10.657262 1.864675 0.0
0.07185 10.30385 -19.3491 2.0
-5.965916 7.320684 13.139033 0.0
-1.84485 6.42045 -3.3836 0.0
-12.136683 5.081399 26.071367 0.0
-16.56785 -1.55485 36.301498 0.0
-1.81205 3.00435 14.2182 0.0
17.274677 -9.110093 4.677386 1.0
21.25675 -7.26795 -1.9314 1.0
-10.035049 5.05955 23.570601 0.0
4.52175 -0.03795 -7.05 1.0
6.672483 3.288966 -13.523601 1.0
-0.690817 12.477417 -50.100433 2.0
-6.108617 8.087383 13.281673 0.0
-7.258492 7.305168 16.505373 0.0
-4.40505 6.37575 9.8561 0.0
1.12021 9.06413 0.51274 0.0
2.15595 8.8859 -11.462049 0.0
-12.088821 -7.523535 39.265156 0.0
-5.310626 -1.960827 29.893034 0.0
10.93495 3.26235 -12.6687 1.0
2.12695 9.88115 -42.514301 2.0
1.907283 2.75035 12.747533 0.0
-0.289379 -0.45945 21.290714 0.0
5.13025 0.03255 -7.3563 1.0
-1.124133 -1.723967 25.665117 0.0
0.82565 11.15375 -35.590199 2.0
-0.464375 11.024776 2.24575 0.0
1.71085 2.3092 -14.418574 1.0
7.927005 -2.276828 -4.086278 1.0
2.19905 9.00745 -34.6768 2.0
-6.476521 -1.840593 30.279314 0.0
-17.072775 -9.644275 42.349125 0.0
0.251783 10.559194 -35.109219 2.0
1.295206 8.318118 12.295661 3.0
7.56285 5.39665 -15.6075 1.0
3.48565 5.374 -18.166901 1.0
-1.91237 4.61359 7.08886 0.0
9.701583 4.277767 -13.710183 1.0
-18.064175 -13.3497 48.483002 0.0
11.06545 6.095072 -14.321967 1.0
21.658051 -7.29495 -1.1776 1.0
-6.60455 9.65085 14.1908 0.0
-18.18795 -5.27685 42.034901 0.0
-14.256284 -0.261317 32.942204 0.0
8.30975 0.94205 -10.5472 1.0
9.10475 3.89745 -13.709421 1.0
16.4589 -6.8414 -0.4943 1.0
19.066664 -5.336235 -4.328714 1.0
3.91195 6.53995 -20.4529 1.0
3.30063 6.51187 -21.121719 1.0
-11.289227 -7.728983 40.112808 0.0
18.287916 -5.11505 -4.352033 1.0
-0.98185 9.59795 -7.5475 0.0
-2.47675 11.33265 7.9264 0.0
0.3652 4.03245 9.3458 0.0
8.11555 -3.480475 -1.075988 1.0
-16.99235 -10.39775 43.210499 0.0
-0.82935 9.256416 -12.534134 0.0
0.41475 5.54755 -22.2313 1.0
5.494075 0.730675 -9.51185 1.0
15.80135 -3.13925 -5.9325 1.0
-2.482683 7.508816 0.733583 0.0
-6.49429 3.92695 18.873241 0.0
2.11583 6.32999 1.8812 0.0
10.722383 -3.679661 -3.313633 1.0
17.1448 -6.0229 -2.3847 1.0
-0.510483 10.310417 -4.727333 0.0
-18.793751 -7.5278 43.074799 0.0
3.144967 7.316117 21.112833 3.0
0.043883 -0.152683 20.273399 0.0
-0.24655 9.51515 -44.767799 2.0
4.709434 5.285034 27.08515 3.0
0.911867 11.113284 -41.493484 2.0
-18.051048 -13.7209 48.964451 0.0
-0.47935 8.55585 -29.2318 2.0
-9.752377 6.917275 22.86845 0.0
-2.35035 8.100017 -0.476833 0.0
-0.23845 -1.40675 22.8785 0.0
-16.081551 -9.80485 41.958199 0.0
1.55855 8.048849 -19.4802 2.0
1.49515 10.94771 -37.659462 2.0
-14.18695 0.84545 32.217499 0.0
-9.20785 3.88735 23.090799 0.0
1.01785 9.07665 -1.6346 0.0
13.897812 2.04481 -11.374221 1.0
2.97655 4.40445 20.629601 3.0
-16.524918 -4.501739 38.50174 0.0
1.07275 11.41555 -42.8577 2.0
-5.2817 4.7313 14.763025 0.0
2.9684 5.0718 9.2992 0.0
-2.250483 -2.03785 27.498734 0.0
3.10875 3.073175 -14.618425 1.0
-12.13727 3.67773 27.066092 0.0
-0.14433 10.50869 -47.467918 2.0
-1.104205 0.70791 19.496405 0.0
2.519712 6.713225 2.673637 0.0
4.18615 6.19905 24.4688 3.0
-0.33387 10.45295 -4.2477 0.0
5.23365 8.19575 -19.2857 1.0
2.15875 6.08925 7.91145 0.0
21.896549 -8.91215 2.6964 1.0
16.296322 -8.352621 4.718 1.0
-3.92055 5.0784 11.057199 0.0
-16.692709 -3.688185 38.123096 0.0
8.717275 -0.33015 -8.31385 1.0
7.892722 8.105993 -17.488087 1.0
-14.122869 0.25629 32.49292 0.0
1.99235 10.37405 -38.346298 2.0
2.63945 8.81665 -25.1292 2.0
-17.42095 -2.08155 37.706432 0.0
-0.5441 7.46655 -11.90705 0.0
-17.1381 -11.60665 44.517849 0.0
15.265251 -3.698617 -4.669467 1.0
-6.97085 4.64375 18.864599 0.0
14.32465 -7.23945 5.04915 1.0
-3.083677 0.117767 23.486504 0.0
-2.71545 6.70575 3.53565 0.0
0.43985 10.65645 -27.2549 2.0
-9.70867 1.4771 26.478699 0.0
10.912899 -0.705167 -8.315133 1.0
1.35405 3.19965 11.5974 0.0
1.9655 7.68875 -9.6601 0.0
16.682827 -6.477095 -1.070233 1.0
9.728383 -1.06455 -7.692533 1.0
-1.66595 8.309751 -5.158933 0.0
-13.497635 -9.745617 42.694019 0.0
-3.94975 -3.25245 31.778099 0.0
-8.524865 7.866078 19.534986 0.0
2.21935 10.42005 -49.2243 2.0
-0.89855 6.77545 -7.0528 0.0
5.04185 5.1156 28.893749 3.0
1.6595 8.23055 9.090799 3.0
-3.5313 0.01555 24.27585 0.0
-0.872283 7.717217 -11.508499 0.0
1.96835 9.93285 -5.4318 0.0
-9.902226 -0.283996 29.117256 0.0
-4.280439 8.482239 8.340777 0.0
14.864349 -0.15465 -9.537175 1.0
-3.674816 2.9412 16.3253 0.0
8.912736 -1.293322 -7.081901 1.0
20.93355 -7.21015 -1.3624 1.0
-17.506298 -9.286212 42.351875 0.0
15.504451 -4.24627 -4.30204 1.0
2.21815 9.37085 -42.416801 2.0
20.514 -6.871375 -1.672825 1.0
15.508575 -7.687413 1.527813 1.0
-13.53945 -1.38395 33.209999 0.0
-17.880043 -9.666209 43.096581 0.0
-6.06869 -1.44361 29.333319 0.0
-6.902767 3.089783 21.123617 0.0
1.124333 9.174467 -46.936569 2.0
-12.147706 0.479264 30.048 0.0
1.107583 10.388083 -10.557834 0.0
-7.88375 9.68753 16.71044 0.0
11.35789 -5.837091 1.29452 1.0
11.492 5.114225 -13.631224 1.0
-6.62445 7.55455 14.686199 0.0
9.51065 -4.282113 -0.911175 1.0
-13.48501 -6.50469 37.75589 0.0
-7.5319 -4.37405 35.039898 0.0
2.354683 9.085183 -32.440933 2.0
2.26945 6.62475 -20.802401 1.0
0.08035 11.06775 -41.859001 2.0
-0.39475 10.42135 -9.2758 0.0
-0.12101 9.095729 -31.533161 2.0
-7.924977 2.302423 23.64599 0.0
14.86165 -4.76265 -2.978867 1.0
4.478783 5.901655 25.511278 3.0
17.094191 -8.72017 4.95956 1.0
-20.20035 -8.96455 45.419899 0.0
2.12963 11.45647 -50.895802 2.0
-7.893163 0.31345 26.728601 0.0
0.319764 10.892508 -39.71994 2.0
0.046 10.34385 -8.039 0.0
12.08035 -5.49045 -1.0823 1.0
6.490109 -0.74879 -6.504099 1.0
14.707583 -6.649916 -0.218267 1.0
2.277717 9.92035 -29.925966 2.0
0.59695 9.17835 -45.365299 2.0
1.91095 14.72915 -47.037601 2.0
-7.296294 6.500839 17.138113 0.0
5.61805 5.25025 30.9492 3.0
0.31615 11.43525 -47.066502 2.0
-18.547436 -10.717722 44.465271 0.0
5.72155 3.98005 -14.6467 1.0
9.42095 0.55305 -10.0714 1.0
-0.39125 12.50715 -49.742001 2.0
0.18305 10.43585 -15.0445 0.0
-14.279117 -8.702216 40.546886 0.0
-5.35565 -1.58075 29.254499 0.0
1.75091 10.688089 -46.69714 2.0
1.736875 3.850375 10.282375 0.0
2.3674 7.67975 -3.10635 0.0
-0.153075 10.3129 -40.2976 2.0
-0.7847 8.6773 -11.9467 0.0
1.45925 14.7245 -46.091541 2.0
5.59215 4.30765 -15.1276 1.0
-10.305828 2.061839 26.286713 0.0
-0.60045 12.06545 -51.3013 2.0
0.82055 9.27695 1.1659 0.0
2.23845 8.50505 -36.406898 2.0
0.88255 10.774883 -34.373829 2.0
17.102507 -4.088621 -5.2843 1.0
-0.28349 5.94682 -1.49456 0.0
8.880251 -3.35101 -2.33854 1.0
7.311379 -2.30755 -3.299914 1.0
5.49937 -1.49673 -3.30155 1.0
-6.2371 1.9561 21.97135 0.0
-7.10655 -0.120621 27.267773 0.0
1.88545 1.17195 -10.710501 1.0
2.34845 9.7059 -28.098749 2.0
0.471375 8.146725 -28.080549 2.0
0.23095 9.93235 -21.2864 2.0
13.706368 -6.862532 0.503782 1.0
12.1411 -0.3448 -8.5414 1.0
4.714221 7.471664 -19.297071 1.0
0.295825 8.578088 13.296713 3.0
-9.8681 -6.37515 38.4534 0.0
17.485481 -8.507295 2.306263 1.0
1.20145 10.21035 -16.6444 0.0
-3.76815 10.37935 8.8284 0.0
1.96405 10.15195 -3.69945 0.0
3.147 7.349451 23.883169 3.0
4.899139 0.571617 -8.8881 1.0
-19.075251 -12.3792 46.201 0.0
-10.43235 0.55415 28.1569 0.0
-3.85049 7.11449 7.4848 0.0
16.637184 -2.558817 -7.341534 1.0
0.69983 12.66947 -50.859402 2.0
-5.50765 -0.55967 27.255121 0.0
-8.909994 5.680839 21.491335 0.0
-7.1249 8.700951 15.63555 0.0
-7.179325 7.8653 16.103624 0.0
2.27115 4.38365 19.887899 3.0
1.26405 8.081451 -30.6334 2.0
-19.25135 -14.37175 49.935299 0.0
-14.095275 -7.70865 39.275833 0.0
-8.80875 4.67315 21.4737 0.0
2.42345 10.381184 -35.6777 2.0
-17.82085 -10.6255 43.77425 0.0
-8.10565 -6.01555 37.622601 0.0
-3.510234 1.95555 19.147417 0.0
-0.533013 0.052937 20.490274 0.0
0.06155 9.517 -21.663448 2.0
-16.28495 -12.19255 47.1497 0.0
-1.732275 1.6727 17.724251 0.0
-10.360351 4.06215 24.65568 0.0
-8.38385 5.24055 20.9419 0.0
-6.704617 0.153783 26.307966 0.0
2.14285 0.84035 -8.3906 1.0
1.50361 8.274111 15.23956 3.0
-0.20895 9.53655 -43.291401 2.0
2.41815 9.26715 -26.724998 2.0
16.488958 -5.112832 -3.294173 1.0
-0.02725 9.58065 -40.928398 2.0
0.476343 10.966589 -40.487801 2.0
-10.503621 5.320661 24.058418 0.0
15.489234 0.666124 -10.936726 1.0
13.65025 1.43135 -10.7588 1.0
-16.091551 -11.61155 46.8493 0.0
0.8683 10.68915 -28.29295 2.0
-0.130033 10.495199 -48.259399 2.0
0.94095 11.00185 -31.898399 2.0
-12.69355 -7.90701 39.645119 0.0
-12.231951 4.35605 26.53595 0.0
-8.2756 -4.23925 34.627998 0.0
11.303779 1.141114 -10.328692 1.0
2.03065 8.19815 -26.5975 2.0
-1.19865 7.7241 -7.3081 0.0
-6.5566 5.06665 16.4669 0.0
1.83175 7.67845 -11.2456 0.0
-0.943683 10.142816 -3.304234 0.0
3.069475 6.506825 16.523226 3.0
0.69185 10.229471 -15.12028 0.0
-14.651683 -5.640283 37.306499 0.0
6.00665 -1.17755 -4.6829 1.0
-6.28865 5.42975 15.3361 0.0
-2.75445 -2.70955 30.5411 0.0
2.40445 8.69925 -28.840799 2.0
-1.106555 -1.11573 24.097464 0.0
-9.51405 7.90275 21.742001 0.0
17.536274 -3.894225 -5.8949 1.0
-0.120625 9.305025 -33.073051 2.0
6.06635 0.029 -7.8998 1.0
16.482466 -7.098891 0.282988 1.0
-1.30325 3.906656 9.682864 0.0
-12.08965 2.23205 27.674601 0.0
-4.68389 2.34379 19.47154 0.0
0.306983 8.081183 -26.697035 2.0
4.914612 2.86255 -13.299788 1.0
-13.151093 0.897493 30.87023 0.0
17.35745 -6.41435 -1.6967 1.0
-18.68265 -14.40445 48.671101 0.0
1.59945 10.98735 -47.5289 2.0
3.31219 4.56985 24.89798 3.0
0.717425 8.481151 -32.723827 2.0
2.28861 8.68278 -30.685465 2.0
1.5099 10.13085 -14.2991 0.0
3.4907 7.890375 -21.303749 1.0
-8.129775 -0.97045 29.335197 0.0
5.45925 4.54905 32.310051 3.0
9.311817 -3.117272 -3.496178 1.0
-19.242975 -6.8608 43.541523 0.0
-16.666849 -12.35485 46.623798 0.0
-8.631201 8.31642 19.50391 0.0
14.702518 2.822183 -12.5418 1.0
2.704881 6.88995 3.474177 0.0
0.05415 10.55905 -9.8138 0.0
0.00115 9.54405 -22.6525 2.0
15.698483 0.68885 -11.493033 1.0
1.264 10.4489 -7.88745 0.0
0.84985 8.60575 15.952 3.0
11.13585 6.64005 -14.5719 1.0
2.31395 9.7045 -27.087952 2.0
-10.130899 -0.90023 30.108791 0.0
-7.4908 -1.88625 30.493299 0.0
8.717887 -4.310714 0.729064 1.0
-3.01205 -2.75475 29.7848 0.0
1.32925 10.75385 -26.8153 2.0
-8.930895 3.470459 23.470366 0.0
2.7016 7.545617 23.66675 3.0
-6.30563 10.67795 13.497721 0.0
5.78805 5.14425 -16.484699 1.0
-2.661783 10.671849 6.9253 0.0
10.344151 -1.6443 -7.4162 1.0
-4.24365 3.91675 12.9327 0.0
2.25515 9.21515 -13.4054 0.0
4.298188 6.702428 27.886934 3.0
-10.883316 -0.055083 29.300531 0.0
-14.89331 -5.1091 37.277645 0.0
-18.5359 -9.332618 43.479336 0.0
1.96885 7.96495 6.9028 0.0
2.105017 5.934083 3.869333 0.0
-4.99355 6.12545 12.3509 0.0
8.311577 -2.280877 -4.703464 1.0
21.902451 -8.69725 2.1352 1.0
-9.29205 -5.448021 36.755489 0.0
2.447883 9.083783 -28.079666 2.0
12.74095 -4.03165 -3.4344 1.0
0.11665 10.974174 0.26995 0.0
-0.86225 7.18965 -9.738001 0.0
0.300717 8.174183 -27.312902 2.0
15.316771 -7.152161 0.725778 1.0
0.0258 9.9788 -15.72555 0.0
-16.101494 -11.920599 45.66198 0.0
-6.23505 -0.60435 27.558201 0.0
12.703751 -5.27775 -1.672467 1.0
1.5605 8.1728 19.450951 3.0
16.30777 -7.85773 5.66366 1.0
2.79105 7.58755 22.827999 3.0
7.5179 -2.929833 -1.724417 1.0
0.891625 10.935575 -37.640251 2.0
4.68805 5.21495 -16.783001 1.0
-15.43785 -11.35865 45.524799 0.0
0.93265 6.75375 -7.5298 0.0
4.04805 6.80605 26.9762 3.0
2.02245 11.78105 -49.9039 2.0
1.22545 8.90325 -48.412102 2.0
1.2464 11.017651 -32.691452 2.0
11.72365 3.15935 -12.416599 1.0
-0.105825 8.6974 -28.038574 2.0
-6.929162 8.29665 15.260067 0.0
-0.30085 11.0429 -48.161098 2.0
-5.118325 6.898 11.297424 0.0
1.02015 4.79965 6.0712 0.0
1.68075 9.70155 -20.28425 2.0
-0.056168 9.912978 -17.667864 2.0
-20.496517 -12.891449 47.10722 0.0
2.104023 7.888787 14.091546 3.0
-5.510006 1.677722 22.288963 0.0
8.890259 -2.320823 -4.929964 1.0
2.78955 9.09525 -0.1835 0.0
-11.95455 -8.64525 42.649399 0.0
-21.575226 -14.710276 49.315228 0.0
12.10001 0.09893 -9.14266 1.0
-0.46975 10.289287 -5.502238 0.0
-3.849961 2.343406 18.482277 0.0
0.50731 13.64263 -47.489788 2.0
2.41655 1.41095 -10.9293 1.0
18.910807 -9.351007 3.9413 1.0
-0.514983 5.17375 3.165033 0.0
0.5261 10.508699 -7.3806 0.0
-6.106884 -3.269867 32.671616 0.0
18.174351 -3.47345 -7.72135 1.0
-3.497436 3.076779 15.921128 0.0
16.048401 -2.380375 -7.29165 1.0
0.08377 11.09669 -45.298923 2.0
-1.499175 5.133325 4.303737 0.0
3.90437 6.870457 26.094151 3.0
1.04705 11.31605 -39.218201 2.0
-4.2905 0.452425 24.02305 0.0
11.901895 -3.89355 -3.294578 1.0
1.927783 7.091883 -4.888833 0.0
-3.296114 4.719904 10.132291 0.0
-14.40385 -6.27815 37.7132 0.0
-0.11995 12.853978 -49.467598 2.0
-1.255617 7.328983 -7.5108 0.0
-0.29255 3.9874 8.585751 0.0
0.90225 9.30365 -50.833847 2.0
2.3746 9.48225 -26.176048 2.0
-1.738175 7.916075 -4.11235 0.0
1.3389 9.28305 -49.502201 2.0
2.686896 7.102419 13.910346 3.0
3.31555 0.974336 -9.491272 1.0
-4.97925 4.45755 15.0336 0.0
1.13695 13.40265 -49.015301 2.0
-2.27665 -2.349017 28.907202 0.0
-3.265817 0.752383 21.8855 0.0
0.72985 10.41255 -10.223801 0.0
8.82265 -4.45815 1.7386 1.0
-0.08025 9.38245 -42.199299 2.0
2.73215 5.04725 16.29385 3.0
1.4806 10.6915 -2.04135 0.0
9.283401 -4.33645 0.1245 1.0
-15.710449 -6.73265 39.085598 0.0
13.83525 -7.39145 2.2312 1.0
1.1023 2.3546 -16.5245 1.0
6.02575 4.68215 -15.3623 1.0
-0.49685 8.240151 -25.1579 2.0
19.103802 -8.27439 0.8614 1.0
-8.102933 0.751567 26.286835 0.0
13.075974 -6.741525 4.53275 1.0
-2.23325 4.39375 8.398 0.0
14.479608 1.663771 -11.295901 1.0
3.835217 4.769683 23.138033 3.0
13.51755 -1.738483 -6.953733 1.0
1.2374 11.0403 -1.79435 0.0
7.960525 6.85005 -16.354851 1.0
-1.8653 3.552075 11.730775 0.0
-0.55147 1.63703 16.501621 0.0
0.906439 13.482272 -48.50502 2.0
-0.13835 -1.44325 23.8971 0.0
-2.341063 9.317787 2.08175 0.0
1.10435 7.95775 -28.533701 2.0
-16.7609 -1.6411 36.927002 0.0
-8.49775 -0.7401 28.743626 0.0
-1.102308 2.719942 13.679401 0.0
2.75605 4.54185 16.798 3.0
10.727369 -2.46801 -5.70092 1.0
-2.30218 -0.6568 24.505419 0.0
1.047383 5.986017 -0.298833 0.0
-0.1206 9.292749 -34.957298 2.0
-1.31538 2.65744 14.296537 0.0
6.29775 3.86525 -14.2808 1.0
18.293917 -3.71775 -6.902833 1.0
1.327993 8.970008 -0.093714 0.0
10.29045 3.148117 -12.786499 1.0
-2.124517 4.2589 9.498817 0.0
-16.712151 -0.5601 35.344151 0.0
1.658827 10.870327 -46.094437 2.0
4.294066 0.8915 -9.468967 1.0
-20.692564 -11.92227 46.726635 0.0
-0.209783 10.313484 -41.878433 2.0
-1.07981 7.91127 -8.89994 0.0
-3.2964 7.71195 5.3531 0.0
2.62355 6.96045 2.013 0.0
11.307275 0.825425 -9.949551 1.0
1.62055 10.04835 -15.0104 0.0
-3.296928 2.332606 17.726555 0.0
1.82415 8.89595 -46.118801 2.0
0.58825 9.11085 -47.8573 2.0
20.714811 -6.49305 -3.435862 1.0
-16.66733 -9.43535 41.930199 0.0
8.489966 -2.748267 -3.524417 1.0
0.67401 8.516149 10.676379 3.0
-12.86983 -8.29971 40.223717 0.0
2.20295 7.80085 3.8121 0.0
-14.489481 -3.29994 35.518948 0.0
0.9019 1.3772 -12.68885 1.0
18.499968 -7.3639 -0.724633 1.0
2.124368 12.521958 -49.131851 2.0
7.87875 -1.521283 -5.7322 1.0
-1.319 3.37195 11.6853 0.0
1.43645 1.42465 -11.3357 1.0
1.85815 11.03175 -43.829899 2.0
2.17655 7.720617 -6.869433 0.0
-4.94578 8.517171 10.07839 0.0
-14.882078 -7.72535 39.478283 0.0
0.11625 9.50865 -44.510769 2.0
21.503231 -8.428309 1.31312 1.0
-13.6529 2.114912 30.751852 0.0
5.09765 3.21245 -13.5282 1.0
-1.93359 2.44419 15.85188 0.0
-4.08875 -2.12035 29.70105 0.0
-0.750483 11.112617 3.909033 0.0
-15.53545 -4.5666 37.446098 0.0
3.88875 5.08783 21.532001 3.0
0.71635 8.74305 -38.632599 2.0
-2.71185 4.735917 7.71295 0.0
1.82475 8.39815 -30.4667 2.0
-10.49255 -7.2499 39.914299 0.0
-16.11412 -7.90545 40.286354 0.0
-1.289477 -0.345332 22.516792 0.0
-0.16603 11.297029 -48.94754 2.0
-9.306275 7.47005 22.340551 0.0
1.07109 1.07435 16.28512 0.0
16.722126 -1.880225 -8.899076 1.0
6.133 5.24355 35.276951 3.0
2.8249 7.4879 1.94325 0.0
-3.41325 9.282784 6.513566 0.0
19.279049 -9.1485 3.0769 1.0
-8.06525 5.33095 19.2516 0.0
0.481175 13.13445 -47.160999 2.0
-1.82425 9.427283 -0.8952 0.0
-3.075321 -0.8467 25.691626 0.0
-5.88185 -2.65545 31.482059 0.0
11.11365 -1.503867 -7.690966 1.0
-11.688825 -3.283283 33.911617 0.0
15.0816 -8.048099 1.98955 1.0
-8.31685 -2.23835 31.393999 0.0
-0.878767 10.053734 -4.711984 0.0
-3.473325 3.373825 14.51725 0.0
-4.43855 9.60505 9.361 0.0
9.29985 3.486337 -13.113788 1.0
15.49675 1.6506 -12.119749 1.0
-3.146863 8.29295 4.702538 0.0
-0.2598 10.317125 -50.874023 2.0
-11.909083 -6.051605 37.297791 0.0
4.10231 2.13207 -12.32456 1.0
7.11545 2.62035 -12.3577 1.0
-2.47935 5.71125 3.51145 0.0
6.949825 -1.632175 -4.904825 1.0
2.66275 7.642717 12.0603 3.0
1.70105 9.02645 -41.7453 2.0
-12.504065 -8.701422 41.095959 0.0
-0.649225 8.3223 -15.301926 0.0
8.706879 -3.666093 -1.669443 1.0
-6.091534 -4.078683 34.295685 0.0
-0.00135 8.33835 13.7109 3.0
-0.52215 -1.52095 24.823999 0.0
-4.6503 2.77045 18.3055 0.0
-10.482484 -7.334117 40.895935 0.0
5.46455 4.89785 -16.7134 1.0
10.283877 6.513565 -14.878272 1.0
-7.912479 3.891236 21.326015 0.0
-6.560725 8.109613 14.496763 0.0
0.43435 11.46785 -48.300701 2.0
13.901465 -3.13915 -5.106343 1.0
-3.557875 -0.38 25.232374 0.0
-14.704683 0.474939 32.858635 0.0
2.1333 8.5164 -31.06505 2.0
-4.0629 4.15515 13.35775 0.0
0.481828 -0.157339 19.504688 0.0
14.1429 -7.62625 3.2432 1.0
0.93385 8.347716 17.496332 3.0
-18.526501 -10.15855 44.05225 0.0
19.274866 -7.141478 -1.1216 1.0
6.479183 4.533783 36.756298 3.0
-4.309172 -2.692028 31.260355 0.0
-1.74975 6.61015 -4.5287 0.0
19.697735 -6.328193 -2.524243 1.0
7.4815 5.748875 -15.87505 1.0
-0.40875 8.38185 -27.707199 2.0
-17.294584 -12.896816 47.692135 0.0
18.080282 -9.356283 4.097701 1.0
2.634325 8.903463 -1.703525 0.0
0.49255 5.762517 -0.105883 0.0
2.79575 7.39575 18.3887 3.0
2.23995 10.332383 -48.339336 2.0
5.7222 3.23805 -13.3364 1.0
12.12665 -6.478 4.46875 1.0
1.116125 3.88095 9.501949 0.0
-14.511383 -2.303172 34.858189 0.0
3.20305 8.28075 3.5668 0.0
6.1052 -0.3139 -7.150883 1.0
2.09695 3.07145 -15.3204 1.0
-1.05145 9.45095 -8.4349 0.0
0.894524 8.513882 14.882127 3.0
-2.33179 6.09757 1.92404 0.0
6.519949 5.295683 35.735737 3.0
0.063333 0.04305 19.688217 0.0
3.4764 4.589575 21.321152 3.0
-12.281273 -1.300772 31.902767 0.0
-12.99765 2.64785 29.415199 0.0
0.95735 5.81235 0.6139 0.0
2.52265 9.66795 -38.189301 2.0
2.93475 10.2652 -23.12315 2.0
0.928675 5.31895 3.677175 0.0
-0.101667 8.48795 -26.050352 2.0
0.45685 10.99435 -0.5642 0.0
14.507676 -6.858159 0.308155 1.0
-8.77655 -6.49075 38.727402 0.0
-4.87489 5.50259 12.499479 0.0
0.896513 11.322575 -46.131874 2.0
-6.72015 -2.175983 31.024467 0.0
1.860964 8.058093 12.528841 3.0
-19.75267 -7.73549 44.651699 0.0
-0.837183 7.458084 -11.0717 0.0
13.660251 -2.77525 -5.5605 1.0
-2.44817 3.54635 12.335379 0.0
3.05465 5.57585 16.194599 3.0
-8.349734 7.497621 19.2887 0.0
-6.87975 7.082117 15.721932 0.0
-6.01895 -2.21675 30.5184 0.0
15.699506 0.299694 -10.712494 1.0
7.26295 7.13735 -17.239401 1.0
2.633875 7.65545 17.864325 3.0
0.290258 -0.727625 21.109936 0.0
0.42375 9.31435 -43.1758 2.0
2.266617 9.509483 -35.332336 2.0
-10.77995 4.41135 25.0238 0.0
-13.8717 -6.0506 37.306049 0.0
2.4183 5.1429 12.8481 3.0
7.31831 -0.31533 -7.92454 1.0
-5.898191 0.67162 24.881289 0.0
10.080331 -3.53778 -3.10957 1.0
-18.532761 -8.500698 43.055889 0.0
7.67173 -2.76349 -2.4671 1.0
-11.740839 -0.34006 30.485428 0.0
3.5412 4.6885 26.32345 3.0
2.074883 2.247417 13.746166 0.0
14.302831 -4.68717 -3.04634 1.0
0.25895 9.22705 -40.0163 2.0
1.67921 5.86139 2.67654 0.0
-0.957717 7.907516 -10.475434 0.0
-7.46865 3.09825 21.720699 0.0
3.30045 4.71455 -17.075359 1.0
2.34155 7.498565 -2.507986 0.0
12.01945 -5.78035 -0.1448 1.0
8.267917 1.65045 -11.144366 1.0
-5.11897 5.482789 13.483419 0.0
1.63305 8.63515 3.538 0.0
17.312458 -2.529659 -8.088137 1.0
-10.523222 -2.340064 32.307056 0.0
-11.51305 0.074206 29.869333 0.0
0.40975 8.348049 15.1405 3.0
-3.700375 8.300216 6.951708 0.0
2.430075 8.674575 -5.083325 0.0
-4.087904 1.103012 22.123217 0.0
-4.873668 -1.070223 27.717064 0.0
17.089951 -4.84445 -4.25405 1.0
-0.707721 9.284892 -13.292044 0.0
-15.077443 -5.888677 37.908623 0.0
7.10159 2.68411 -13.15198 1.0
-1.3706 7.25535 -6.40595 0.0
1.98855 9.39735 -15.5053 0.0
-14.121401 -3.12111 35.10165 0.0
1.70305 13.24825 -48.691299 2.0
3.097075 3.898937 -15.902138 1.0
1.935983 10.514816 -41.094933 2.0
-10.02675 6.68365 23.4464 0.0
2.2869 9.1267 -33.328415 2.0
14.103381 -6.336472 -0.290655 1.0
-1.3819 10.160601 -0.2863 0.0
-0.60865 8.86325 -15.3138 0.0
8.672075 2.303625 -11.834049 1.0
-5.13195 7.48995 10.89108 0.0
1.48955 7.3118 -12.07965 0.0
14.091084 -5.334028 -1.687217 1.0
-7.736375 4.287575 20.504375 0.0
-1.5798 3.44305 12.5077 0.0
-0.509717 3.874183 9.517667 0.0
0.04395 10.04455 -45.883148 2.0
16.327372 -6.22607 -1.26558 1.0
-10.485209 -1.071517 30.506639 0.0
-9.297672 0.722394 27.290291 0.0
-0.489536 8.685892 -16.138899 0.0
-8.917516 -2.443917 31.884733 0.0
9.49625 -0.4492 -8.444224 1.0
20.27355 -6.37195 -2.6831 1.0
-0.896283 5.315333 2.641166 0.0
-7.087584 1.761917 23.548567 0.0
-13.503943 -7.690973 39.299538 0.0
0.47455 11.39105 -42.816101 2.0
1.7083 16.299149 -46.122597 2.0
-4.87435 -3.29123 32.90696 0.0
14.49899 -7.086584 0.7096 1.0
2.771375 6.207225 6.17575 0.0
-0.05035 9.46595 -26.5236 2.0
17.502134 -9.15735 3.709516 1.0
7.087707 -1.93475 -3.899486 1.0
-7.681383 0.91595 25.477432 0.0
8.70975 -1.58185 -6.3467 1.0
2.469425 7.69255 16.348301 3.0
6.1335 -1.62005 -3.87425 1.0
-2.300384 6.896567 0.76375 0.0
-3.713223 1.091286 21.697727 0.0
-7.307449 1.124525 24.719667 0.0
8.073772 6.127638 -15.882679 1.0
-1.41745 10.60195 2.7034 0.0
10.494514 -5.47621 2.284015 1.0
-2.55715 8.93017 2.46728 0.0
-4.035883 9.075566 7.919167 0.0
13.299367 -5.083967 -1.851933 1.0
-15.684316 -1.879033 35.504971 0.0
-12.688712 -0.293859 31.247465 0.0
5.04865 9.46735 -20.512501 1.0
-0.9305 6.244913 -2.121162 0.0
1.500783 6.630683 -4.734266 0.0
2.81395 6.24965 12.0915 3.0
2.0631 9.89555 -48.923725 2.0
-13.486738 -9.707064 43.703598 0.0
-0.277283 8.703793 9.043445 3.0
2.22065 5.76375 10.2768 0.0
0.711183 10.969184 -1.077066 0.0
5.6705 4.176601 -15.67595 1.0
-7.305299 -2.551312 31.92325 0.0
2.13005 9.285083 -41.923733 2.0
15.67485 -7.8949 5.062112 1.0
4.095617 4.707733 26.342316 3.0
1.679977 10.449431 -25.521191 2.0
3.56695 6.18935 20.2166 3.0
4.289635 -0.169721 -6.123128 1.0
2.23075 9.82365 -9.765849 0.0
3.424925 7.23345 24.884003 3.0
6.13855 4.57485 35.971401 3.0
-18.58955 -14.00925 48.891499 0.0
-0.320517 5.464384 1.330133 0.0
8.141849 4.2834 36.69825 3.0
2.0961 10.24555 -28.756149 2.0
-18.917065 -8.695136 43.659504 0.0
4.488083 3.94755 -15.111867 1.0
0.106383 8.9149 -35.490368 2.0
-0.5098 4.7582 5.302 0.0
-2.26015 4.56845 7.7536 0.0
3.416396 6.062189 18.914631 3.0
18.11315 -8.313769 5.95354 1.0
5.93735 -1.83635 -3.1013 1.0
2.551617 7.116917 12.283267 3.0
0.682833 8.55875 13.717517 3.0
-19.29495 -13.768417 47.8396 0.0
-6.37805 8.07565 14.080825 0.0
18.282074 -9.051675 3.26865 1.0
2.06755 7.49495 -6.324267 0.0
-4.289325 0.1462 24.489349 0.0
0.512283 8.254617 -28.905199 2.0
4.24725 1.58225 -10.8661 1.0
4.683525 6.729975 -18.887924 1.0
-0.085917 10.125367 -11.495584 0.0
-1.3667 8.6509 -6.96825 0.0
-0.20605 10.67185 -42.1376 2.0
-8.867949 8.104806 20.322687 0.0
2.76225 7.95915 23.235399 3.0
-0.309283 9.28685 -16.909967 0.0
16.907875 -9.05585 3.5131 1.0
-0.31075 10.54055 -3.0932 0.0
2.059134 9.898283 -44.91835 2.0
-16.113266 -9.139133 41.466869 0.0
1.707483 4.119217 9.493134 0.0
2.36221 7.11949 7.51448 0.0
17.506287 -6.679913 -1.326745 1.0
-11.299996 -0.320077 30.084143 0.0
-15.913112 -10.766989 43.469967 0.0
0.40265 4.74195 -21.1586 1.0
-4.2541 10.2677 9.5186 0.0
-5.895233 1.679367 22.702448 0.0
4.288283 -0.496508 -4.685358 1.0
-2.315622 -1.083664 25.361341 0.0
14.312683 -1.886017 -7.057944 1.0
3.75535 6.746767 23.516434 3.0
2.25985 10.11525 -30.57835 2.0
-1.624325 11.298399 5.937425 0.0
2.28215 12.306617 -50.866802 2.0
11.88435 2.10571 -11.491179 1.0
1.96615 10.553431 -41.903206 2.0
9.2228 7.86255 -16.25095 1.0
-7.109207 1.280893 24.320227 0.0
2.08693 7.23593 -23.140141 1.0
4.33905 6.53955 29.068249 3.0
-0.910237 4.079998 8.680491 0.0
-0.286083 8.78535 7.2791 0.0
-0.99225 8.57955 6.7047 0.0
15.09969 -2.89255 -5.89332 1.0
-18.50502 -12.70265 46.308453 0.0
7.675913 4.543125 -14.666451 1.0
1.51485 5.66115 3.17185 0.0
11.68975 -6.138975 3.97115 1.0
-11.471925 -3.878625 34.490959 0.0
-0.685736 11.515936 -49.94936 2.0
10.090517 -2.281517 -6.084034 1.0
-1.09815 3.29615 11.1344 0.0
3.29057 5.91859 17.872879 3.0
2.19015 7.97995 17.195999 3.0
-13.49565 -0.95815 32.390598 0.0
2.89935 4.36495 17.798201 3.0
-10.496583 -3.02835 33.128132 0.0
-0.50245 4.73625 6.428 0.0
0.28755 4.18375 7.90355 0.0
-17.2453 -4.691483 39.503201 0.0
2.505396 7.092468 1.115646 0.0
3.26125 7.96875 4.4065 0.0
5.110964 2.709493 -12.944214 1.0
2.2153 8.28625 -8.951651 0.0
1.91533 8.84515 -37.693962 2.0
-0.676275 2.509825 13.735975 0.0
-9.74215 3.681884 24.261316 0.0
-11.173924 5.689675 24.629488 0.0
1.097183 6.550583 -5.845533 0.0
-0.332275 6.457525 -4.52135 0.0
5.55515 0.40555 -8.5155 1.0
2.24729 7.137651 -1.6753 0.0
-1.490117 2.3375 15.108317 0.0
0.4359 10.1252 -25.717499 2.0
2.5651 6.47375 10.8553 3.0
5.097725 -0.901963 -4.531262 1.0
3.39835 7.47275 25.693199 3.0
3.305083 1.935917 -12.061933 1.0
0.31345 5.3022 2.729625 0.0
-19.912912 -12.306037 46.467697 0.0
0.90711 8.863989 5.3106 0.0
0.724817 10.285184 -14.330533 0.0
17.13735 -6.85165 -1.0313 1.0
6.49835 6.321182 -16.897381 1.0
3.18235 8.46205 3.1017 0.0
-2.877478 3.298461 14.117349 0.0
-0.69645 9.66681 -10.306761 0.0
2.4847 9.65215 -23.945099 2.0
-11.898296 -6.335132 37.693272 0.0
-11.6747 -7.328675 39.277309 0.0
1.27215 8.69665 -43.240601 2.0
1.706617 9.940983 -13.945867 0.0
1.492317 11.08625 -40.920265 2.0
-0.45305 10.45565 -8.3767 0.0
14.706922 2.124807 -11.887743 1.0
17.917549 -2.51215 -9.44105 1.0
-15.6655 0.698217 33.342617 0.0
9.307116 2.542783 -12.223701 1.0
0.39675 10.40255 -9.1432 0.0
1.79895 6.43495 0.0477 0.0
-18.479771 -13.153951 47.060699 0.0
-1.23825 9.25415 -7.4873 0.0
-6.51505 5.08555 17.3841 0.0
-20.696625 -16.032974 50.711098 0.0
2.15451 8.921229 -15.6856 0.0
-1.36057 1.82371 16.86912 0.0
-10.295039 -4.453806 35.104923 0.0
-0.86255 -1.43265 24.334299 0.0
4.34329 5.73347 24.699402 3.0
-16.211651 -11.21335 43.989498 0.0
1.090317 13.842151 -47.746296 2.0
-3.30515 -0.925839 26.08079 0.0
-12.28348 -4.470636 35.289242 0.0
13.79255 -1.22535 -7.9795 1.0
-9.89908 0.313258 28.296776 0.0
11.64855 -5.77575 0.4028 1.0
2.04707 10.493011 -43.28392 2.0
-4.66415 4.894075 12.933725 0.0
1.705464 4.460707 8.473643 0.0
0.593417 8.953383 -40.893864 2.0
-11.887183 -7.898083 40.098415 0.0
10.517217 1.506117 -10.962901 1.0
-21.16165 -13.77485 48.236099 0.0
-2.266783 9.68015 2.507989 0.0
0.69333 11.26381 -45.519176 2.0
-6.67145 3.48555 19.790899 0.0
2.0756 4.973825 14.350275 3.0
-4.759283 6.25425 11.326733 0.0
9.5296 2.13605 -11.743275 1.0
14.913217 -5.98245 -0.885 1.0
9.905333 -1.85435 -6.512282 1.0
2.29105 6.46815 7.1503 0.0
1.105483 8.861983 4.8796 0.0
-1.34155 4.3597 7.27445 0.0
-7.71085 -5.72345 37.0891 0.0
-0.037 10.61235 -38.915451 2.0
1.6965 10.070199 -13.31205 0.0
-1.02185 9.12525 -10.3447 0.0
18.691351 -9.31405 5.360317 1.0
14.87215 -3.12285 -5.352 1.0
2.33125 5.29665 -18.6924 1.0
-11.69565 -3.67395 34.1661 0.0
-0.95475 8.58745 7.6019 0.0
-10.312316 -4.04435 34.49033 0.0
-11.11555 -4.45449 35.114838 0.0
2.00775 6.96525 -2.696867 0.0
-2.23725 11.05015 6.5725 0.0
12.902901 -6.8324 1.1606 1.0
18.900465 -7.949765 0.286157 1.0
14.32955 -2.83685 -5.9546 1.0
5.522335 1.665764 -11.091515 1.0
16.675137 -0.928407 -10.311257 1.0
-8.301117 -1.630217 30.558533 0.0
2.278025 6.274375 8.32685 0.0
2.33275 10.5127 -38.1208 2.0
-2.724025 4.473625 8.893951 0.0
-3.495383 6.677583 6.708767 0.0
-8.917712 0.276289 27.686501 0.0
-22.057051 -14.68015 49.257401 0.0
2.40645 7.77755 -24.248199 2.0
7.89983 -1.10413 -7.06816 1.0
2.471683 4.48265 20.257002 3.0
-6.447 5.75048 16.117559 0.0
2.30875 4.6667 16.473576 3.0
-19.505083 -12.134716 46.149303 0.0
14.902134 0.505067 -10.32126 1.0
-8.511249 -5.6346 37.173916 0.0
0.30405 2.566883 13.037399 0.0
11.710711 -2.28893 -6.52592 1.0
0.10175 10.60475 -38.017899 2.0
21.108509 -8.68615 2.1008 1.0
2.51155 10.62525 -42.741699 2.0
2.66915 9.09285 -26.252899 2.0
-13.688395 -2.886659 34.520336 0.0
17.508049 -6.233987 -2.05755 1.0
1.50485 4.57015 16.5184 3.0
21.659883 -8.16385 0.6924 1.0
-11.70525 -1.738794 32.086887 0.0
1.51335 9.271951 -47.895496 2.0
-0.2927 0.750683 18.133101 0.0
-3.472138 8.302976 5.927262 0.0
-5.32903 8.509371 11.037939 0.0
4.55635 4.63855 31.059799 3.0
0.1052 11.123449 -40.698799 2.0
3.13435 7.38245 17.0411 3.0
-10.900941 2.087868 26.91147 0.0
2.972816 6.524084 15.654634 3.0
7.82625 -3.58395 -0.1704 1.0
-3.2646 0.34975 22.933035 0.0
5.561817 5.858751 32.933197 3.0
3.05955 5.500564 16.669285 3.0
13.320916 -6.461283 -0.038267 1.0
9.99435 5.82345 -14.5945 1.0
-16.517651 -0.99405 35.046101 0.0
-1.65953 1.16485 18.9121 0.0
10.515625 4.09755 -13.271601 1.0
-14.60755 1.59425 32.1292 0.0
-3.86515 1.974713 19.518087 0.0
-14.13365 -2.37895 34.631001 0.0
-6.657475 -4.7277 35.676727 0.0
-5.89525 -1.15392 28.697359 0.0
1.2565 2.98695 12.08475 0.0
-11.441325 1.15015 28.3557 0.0
5.0838 4.27525 -15.81075 1.0
-12.72188 -1.90969 32.884373 0.0
-15.22105 -6.66245 38.381001 0.0
7.90755 0.714175 -9.890076 1.0
2.28885 14.0581 -48.1446 2.0
3.28215 5.21775 -17.293301 1.0
0.296017 10.645583 -4.451 0.0
-1.38735 2.01035 16.4508 0.0
1.50745 5.26015 5.12815 0.0
-16.32575 -7.114836 39.666286 0.0
0.5397 10.7697 -37.361702 2.0
-2.061617 6.121483 0.492467 0.0
2.03145 9.101183 -20.718533 2.0
-2.671866 5.14065 5.709467 0.0
2.11375 10.115831 -35.91032 2.0
2.41345 9.460449 -29.180801 2.0
-6.30795 6.276916 15.2205 0.0
-2.66625 10.061364 5.508671 0.0
-0.50909 7.09385 -9.49581 0.0
-8.21745 4.07515 21.086201 0.0
19.8892 -9.14595 2.65605 1.0
11.916439 -6.270161 2.120722 1.0
6.0683 -2.6468 -1.1314 1.0
2.30695 9.09035 -5.899025 0.0
-1.36975 9.57555 -3.9083 0.0
-6.273065 1.272393 23.875628 0.0
-1.87965 5.21565 4.6343 0.0
13.72005 -7.05985 5.3198 1.0
-6.29519 3.92073 18.49312 0.0
0.48945 -1.04845 21.915899 0.0
3.69415 4.41995 22.121799 3.0
1.681525 6.541425 -2.94615 0.0
-0.82705 0.7628 18.977076 0.0
4.38335 4.46865 -15.3845 1.0
1.51195 1.86235 -13.0929 1.0
-7.83775 9.25055 17.502899 0.0
-10.091779 -4.906136 35.864815 0.0
4.481386 -0.363629 -5.507936 1.0
-8.116084 -3.07885 32.910809 0.0
10.31005 -1.149275 -7.850025 1.0
1.878525 2.935625 12.33655 0.0
-8.349117 4.278183 21.859232 0.0
1.1139 11.0088 -38.810898 2.0
2.698775 3.49835 -15.68205 1.0
-5.32035 4.06955 16.726601 0.0
-20.62545 -15.22785 50.786499 0.0
0.489775 2.937025 12.14115 0.0
11.478983 -5.301117 -0.678478 1.0
17.29385 -7.321265 0.103186 1.0
-5.20625 10.63255 11.4601 0.0
-0.713133 7.8939 -13.064934 0.0
0.076972 8.474383 -29.322823 2.0
-4.2606 7.47435 8.5174 0.0
-17.697063 -11.524392 44.709717 0.0
10.4254 -2.9816 -4.4396 1.0
-10.52135 -5.303636 36.523533 0.0
1.05075 7.79415 -25.5867 2.0
8.17815 -4.0187 0.49185 1.0
-9.48725 -1.40945 30.085699 0.0
-15.035283 -0.246083 33.541634 0.0
-9.898889 -1.78099 31.27396 0.0
-9.713449 7.3361 22.327 0.0
2.32345 13.503049 -48.663197 2.0
-1.27489 10.107471 -1.31248 0.0
2.42935 10.28535 -44.318901 2.0
-11.02235 -2.87255 32.917301 0.0
-1.65885 7.875317 -4.6277 0.0
0.483683 0.87465 17.24045 0.0
-0.47037 8.50411 -16.884602 0.0
-7.281 5.481975 18.1759 0.0
2.08975 9.077325 -39.527149 2.0
2.56455 9.49665 -0.3259 0.0
14.27405 -6.73875 5.3753 1.0
-0.698433 8.669049 8.290133 0.0
2.02465 5.03435 6.0887 0.0
0.25445 10.590516 -5.115033 0.0
-12.31395 -2.342559 33.107426 0.0
4.520683 3.271783 -14.050167 1.0
-16.500551 -10.23123 42.7229 0.0
-10.280838 3.689849 24.904839 0.0
-21.645683 -12.341783 47.878468 0.0
2.232983 6.141483 3.2926 0.0
-0.08075 6.82035 -23.587299 1.0
16.941349 -7.3462 6.0749 1.0
15.72301 -5.09149 -2.87591 1.0
2.0531 10.2668 -34.502834 2.0
-4.109317 3.471167 15.086066 0.0
6.684805 -1.685505 -4.290711 1.0
-7.26489 3.47155 20.902681 0.0
11.2913 4.4443 -13.294725 1.0
0.91719 11.50025 -47.924858 2.0
-0.10759 10.28829 -46.529762 2.0
-3.91935 2.515364 18.097385 0.0
0.485339 0.464561 18.093512 0.0
13.16635 -1.06775 -7.7963 1.0
-9.28867 -3.54712 33.86623 0.0
-0.060883 10.057817 -14.671134 0.0
2.646816 7.583917 10.4593 3.0
-10.69965 -5.83555 37.091473 0.0
2.0785 3.17815 12.00765 0.0
-6.712112 2.094125 22.704498 0.0
-18.927 -10.291475 44.462074 0.0
2.46085 9.60315 -43.384998 2.0
1.116175 10.729875 -4.53235 0.0
-1.87822 3.70142 10.908369 0.0
-8.30765 1.15115 25.7339 0.0
0.29135 9.097549 -39.343399 2.0
-9.37485 -6.53205 39.641602 0.0
4.85315 5.57205 -18.1401 1.0
0.48695 7.94535 -25.70385 2.0
-17.684212 -13.26965 48.306664 0.0
-4.533461 10.090765 10.0941 0.0
0.41105 10.14415 -26.854099 2.0
6.6624 7.075525 -17.434475 1.0
-19.704342 -12.687628 46.687523 0.0
0.40765 9.40215 -50.909 2.0
17.325399 -8.079966 5.8499 1.0
2.2431 5.761 -19.709249 1.0
-8.35085 -6.06575 38.5639 0.0
1.86167 9.48771 -18.706261 2.0
15.108624 -7.356137 1.036775 1.0
0.03245 9.2819 -24.6707 2.0
1.8976 8.4681 -19.699751 2.0
-10.57755 2.684883 26.055435 0.0
0.53575 6.6482 -6.498 0.0
4.49955 4.56835 28.9725 3.0
7.112507 -1.468836 -5.509614 1.0
4.1377 7.4061 -19.911999 1.0
0.94905 5.290636 -20.878263 1.0
1.25155 8.41125 14.422 3.0
-0.05967 6.906709 -7.920381 0.0
-17.297298 -4.32335 39.896351 0.0
2.478686 6.290742 4.092886 0.0
1.319275 11.112325 -37.286324 2.0
0.095817 8.83635 5.674034 0.0
-0.09285 10.20025 -10.5351 0.0
0.497283 7.847683 -19.524733 2.0
1.08525 8.30985 -34.778999 2.0
-13.22155 1.9634 30.18845 0.0
-3.22865 10.0284 6.9582 0.0
-3.719227 5.701508 8.906193 0.0
3.512417 4.45675 -16.299644 1.0
1.52395 10.76425 -2.6748 0.0
-11.320416 -8.035016 40.74287 0.0
19.692137 -5.250093 -5.455471 1.0
-9.569501 6.677957 22.506479 0.0
5.475366 -0.917727 -5.064723 1.0
-0.12227 5.69165 0.16956 0.0
-1.118075 6.745325 -6.137925 0.0
-9.903025 -7.313025 40.263515 0.0
-20.19585 -9.538401 45.867401 0.0
2.277 9.893351 -39.910099 2.0
-12.493683 -8.955051 41.909069 0.0
0.88215 8.31655 -33.382 2.0
-15.489517 -5.269317 37.731663 0.0
11.317683 -2.768417 -5.303733 1.0
-4.29495 2.936332 17.525473 0.0
-18.41935 -6.0768 41.948502 0.0
1.131725 8.558875 16.880724 3.0
2.19855 9.58755 -11.6735 0.0
2.24965 10.051351 -31.914734 2.0
6.861222 4.779522 37.453255 3.0
-4.59515 6.07595 10.8757 0.0
0.11535 10.07595 -19.8027 2.0
2.4302 9.375099 -9.8774 0.0
8.492949 0.48189 -9.7316 1.0
-18.675449 -11.40965 44.988098 0.0
-15.484608 -2.498717 35.902081 0.0
10.493099 2.311063 -11.6338 1.0
-11.89709 -5.09691 36.027279 0.0
1.89335 5.16105 -19.403799 1.0
6.82895 1.99715 -11.8087 1.0
-0.503967 5.417499 1.880833 0.0
-1.37375 10.37385 1.2609 0.0
2.30275 7.30881 7.079709 0.0
-11.273656 -1.68979 31.727722 0.0
3.296384 4.455383 21.721735 3.0
-1.48515 9.29145 -4.295629 0.0
-2.777683 8.139983 2.896367 0.0
9.293549 1.095617 -10.477433 1.0
-1.31777 5.33891 3.08978 0.0
-8.54855 4.25185 21.454201 0.0
1.060717 6.14955 -2.0828 0.0
-13.537331 -0.32531 32.258018 0.0
-10.89925 -6.64085 38.321301 0.0
10.11225 1.35465 -10.8447 1.0
13.43505 3.64595 -12.5883 1.0
-2.494683 3.02815 14.512001 0.0
2.01125 8.294949 -14.0781 0.0
-1.52815 9.07825 -2.974 0.0
-0.61515 10.20435 -6.4235 0.0
11.7755 3.68515 -12.56535 1.0
6.291421 8.091935 -18.48913 1.0
-12.511549 4.66479 26.860819 0.0
-13.86895 -6.61925 37.977798 0.0
0.7018 6.93875 -23.118801 1.0
-6.86475 -5.2808 36.357803 0.0
0.84155 14.07635 -47.363201 2.0
-2.6188 8.512751 1.70725 0.0
2.480683 4.51815 9.653033 0.0
0.70449 9.236509 -46.93116 2.0
-3.38655 6.04255 7.3787 0.0
2.486564 7.865193 19.732885 3.0
9.38235 6.02195 -14.9962 1.0
1.27935 8.84665 -45.652599 2.0
-0.1007 10.267375 -8.51505 0.0
2.819127 6.301419 13.486054 3.0
2.43805 9.0783 -24.826149 2.0
-0.888519 2.936789 12.907291 0.0
2.52925 1.0263 -9.52555 1.0
0.68907 10.478991 -8.24958 0.0
4.17315 -0.88835 -3.7666 1.0
1.135236 8.374464 12.6827 3.0
-1.73035 9.311361 -2.294006 0.0
8.65125 -1.76355 -5.9509 1.0
10.30879 -0.67885 -8.65814 1.0
-1.42 7.05645 -5.60815 0.0
0.27795 11.10825 -44.48233 2.0
2.3038 7.48595 10.698549 3.0
-19.877193 -10.08945 45.32011 0.0
-2.686925 1.140425 20.310911 0.0
0.02985 9.919951 -18.1574 2.0
0.1012 7.7007 -16.7243 0.0
2.69259 2.02915 -12.54478 1.0
-6.496776 -2.705387 31.901075 0.0
-2.08425 2.135683 16.5616 0.0
2.73125 9.283816 0.4725 0.0
0.29209 10.938231 -41.33448 2.0
-11.290506 -5.901893 37.234596 0.0
2.366217 6.88805 6.6938 0.0
-0.172317 10.306001 -43.508118 2.0
1.115664 2.07915 -14.910415 1.0
1.3138 10.08735 -20.295502 2.0
0.508425 1.82275 15.076963 0.0
-4.5355 11.274349 10.2655 0.0
-4.08835 -3.42315 32.607899 0.0
19.447149 -9.62595 5.4926 1.0
-0.24525 9.9014 -34.5341 2.0
-7.91085 2.6768 23.107975 0.0
1.83045 8.16055 -16.6929 2.0
-7.54713 7.30523 17.290939 0.0
0.494575 11.288241 -46.510662 2.0
-9.297765 6.08965 22.097641 0.0
2.47725 0.526164 -7.896486 1.0
4.268217 5.28455 24.341799 3.0
-13.22465 3.7172 28.65395 0.0
5.46603 -1.15753 -4.10674 1.0
1.846017 10.435517 -27.317499 2.0
6.6755 -2.7646 -0.3554 1.0
1.96805 8.087916 4.120234 0.0
-0.303986 3.718721 9.918088 0.0
14.918375 -1.658275 -7.843975 1.0
1.885875 10.105625 -9.467775 0.0
19.299164 -9.642508 4.459342 1.0
-1.3076 5.7088 1.33805 0.0
-3.04655 0.99215 20.9907 0.0
9.337517 3.069017 -12.784301 1.0
3.2442 5.87025 17.33955 3.0
-12.7661 3.2321 28.42815 0.0
-0.05225 9.33915 -41.382 2.0
2.088383 8.528483 -12.898467 0.0
-14.88865 1.84355 32.487602 0.0
-12.146567 0.85215 29.64975 0.0
4.10659 5.428309 -17.74016 1.0
0.868738 5.695775 -21.525499 1.0
2.23585 9.906401 -41.734253 2.0
0.697407 13.539037 -47.128986 2.0
-0.10305 2.98105 11.842251 0.0
-12.635322 0.166379 30.7421 0.0
-1.523441 4.316005 7.8707 0.0
10.92265 -4.20415 -2.647 1.0
1.50375 8.641249 5.6939 0.0
-2.688386 -2.461723 29.141502 0.0
2.33159 7.52487 11.82948 3.0
-12.279394 3.108345 27.714823 0.0
-2.47605 -1.722017 27.337 0.0
0.71437 3.22221 11.522301 0.0
1.9925 10.1295 -49.943748 2.0
-1.0966 7.2531 -10.56135 0.0
10.323741 -5.070367 0.494713 1.0
-12.68575 -4.266984 35.126202 0.0
-2.70185 4.04905 11.7159 0.0
0.30875 4.877049 5.105863 0.0
1.96635 4.6902 17.121849 3.0
15.704027 -8.155162 2.296222 1.0
10.671967 -5.34975 1.473867 1.0
1.268883 8.45535 8.480866 0.0
0.316236 2.270636 14.085143 0.0
-0.2572 9.107301 -18.342625 2.0
-16.70731 -5.09501 39.0914 0.0
0.1938 10.3777 -15.91695 0.0
19.116228 -8.42863 1.27295 1.0
-2.894067 6.488433 4.50655 0.0
2.13985 1.11085 15.304 0.0
8.4509 -2.96905 -2.87625 1.0
2.081183 10.689317 -37.448231 2.0
-10.6898 -7.551 40.493301 0.0
-0.83725 10.73405 -50.522499 2.0
-12.27235 1.97165 28.1987 0.0
-8.286033 7.083317 19.270533 0.0
-7.505714 9.489468 16.110054 0.0
1.9596 9.84475 -48.49165 2.0
15.71557 -4.48179 -3.71686 1.0
-13.288161 -2.283531 33.700745 0.0
8.301374 -0.784525 -7.5555 1.0
0.73725 1.71875 -14.2913 1.0
3.13615 7.29985 4.455717 0.0
11.096608 -5.893083 2.879158 1.0
-6.13385 4.69493 16.881659 0.0
3.057123 7.102596 19.117224 3.0
-1.630683 6.89135 -3.281067 0.0
1.91905 0.69855 -9.4919 1.0
-13.895113 -7.155312 38.641563 0.0
1.08065 7.773 -24.846701 2.0
-0.108417 11.058917 -43.912464 2.0
3.06855 7.09205 -21.3214 1.0
5.90695 -0.61125 -6.6421 1.0
-0.51045 11.0804 1.4337 0.0
1.951117 8.282017 2.551833 0.0
14.686199 -0.700767 -8.9152 1.0
-5.49385 -3.8142 33.652901 0.0
-6.61495 10.10775 14.9145 0.0
7.28339 -2.54281 -2.50188 1.0
-7.64375 3.56515 21.1066 0.0
-0.90401 9.122351 -11.115141 0.0
-0.91835 10.46575 -3.5698 0.0
7.54735 1.16505 -10.1926 1.0
2.30695 9.504017 -37.341568 2.0
-10.88225 -8.35625 41.677601 0.0
17.955351 -7.23275 -0.9413 1.0
13.271957 -7.145519 2.290731 1.0
-19.518026 -9.514463 44.723267 0.0
-1.136333 9.141768 -8.892117 0.0
20.531651 -9.19835 4.1866 1.0
3.23585 7.21635 -22.417801 1.0
16.466389 -2.14973 -7.92932 1.0
-13.299934 -5.84025 36.947834 0.0
2.98415 7.85135 -22.948 2.0
-8.51065 -0.40955 27.940201 0.0
-4.537083 2.231783 19.881632 0.0
1.500762 8.90215 0.729025 0.0
1.75485 8.19005 16.2528 3.0
0.72025 5.1328 4.3146 0.0
3.08451 5.74637 -18.928381 1.0
-3.866075 5.73555 9.319175 0.0
1.77345 7.65175 -11.7018 0.0
1.52595 10.59675 -24.762199 2.0
-0.104517 5.380049 2.1532 0.0
13.880051 0.51085 -10.12215 1.0
2.362983 8.332816 -6.708633 0.0
17.062851 -1.59165 -9.5626 1.0
-16.87705 -1.70815 36.065201 0.0
11.296731 3.90357 -12.89398 1.0
-4.064475 4.299175 11.9777 0.0
1.7292 2.0335 -13.9417 1.0
2.19175 9.90815 -39.285301 2.0
-9.6836 -4.569625 35.493149 0.0
-2.477717 10.02155 4.535167 0.0
-6.505125 -4.343275 34.876163 0.0
6.32115 4.96185 35.8908 3.0
-5.288136 -0.23475 26.33493 0.0
2.876483 5.49795 15.511884 3.0
7.09197 6.04897 -16.327499 1.0
-0.04325 10.35565 -7.1793 0.0
17.3262 -7.13675 -0.6242 1.0
0.506467 10.772334 -2.930933 0.0
0.707617 9.034284 2.719633 0.0
12.57175 -3.61095 -4.7144 1.0
7.49645 3.90385 -14.05878 1.0
4.75615 6.75745 29.8948 3.0
-0.30765 7.6976 -14.682851 0.0
-2.302403 7.303573 -0.101335 0.0
6.893095 -0.072339 -8.283821 1.0
-5.627801 8.714733 11.930599 0.0
2.36931 6.69419 7.50894 0.0
-14.318925 -7.946125 39.536873 0.0
5.89095 2.91035 -13.139733 1.0
10.26335 -4.59115 -0.8879 1.0
0.27395 11.890117 -48.374832 2.0
16.117901 -8.09528 5.11563 1.0
4.53495 -0.53725 -3.683 1.0
-14.713751 -1.689741 34.497116 0.0
-11.5724 1.8072 28.032501 0.0
12.43475 -2.40765 -6.3723 1.0
-0.17835 8.46875 -25.5147 2.0
-0.501883 10.62865 -1.507 0.0
-6.70687 3.33609 20.315319 0.0
-15.282467 -0.860977 34.316967 0.0
-10.889137 6.10885 24.248611 0.0
2.704164 9.085079 -1.106857 0.0
2.363867 7.558117 12.850666 3.0
-7.51883 4.51759 19.88958 0.0
3.89165 4.70515 28.0716 3.0
3.74875 6.52465 -19.932652 1.0
-9.09461 -5.766271 37.509583 0.0
-5.0644 -2.431875 30.691149 0.0
-3.68849 3.64733 13.870621 0.0
-9.896695 7.468841 22.748301 0.0
1.3096 0.0214 18.50955 0.0
6.56765 -1.21415 -5.6033 1.0
-10.105825 -6.63965 38.671452 0.0
5.6496 4.73335 -16.344151 1.0
-2.59445 7.51905 1.2104 0.0
2.290466 1.928683 14.2587 0.0
2.51235 6.69143 9.89866 3.0
2.41105 2.45395 13.9015 0.0
17.706291 -7.487175 0.099233 1.0
-0.47795 8.87965 -33.355598 2.0
6.921638 -2.4871 -2.2917 1.0
-17.497749 -12.697083 48.164734 0.0
0.15175 10.59635 -10.5531 0.0
-5.90555 3.12045 19.136101 0.0
6.29825 4.937683 34.270966 3.0
-1.96045 4.80265 6.2274 0.0
1.36595 9.36105 -51.597198 2.0
-15.29025 0.15245 33.070301 0.0
1.49135 9.093783 -43.827564 2.0
