# .PCD v0.7 - Point Cloud Data file format
VERSION 0.7
FIELDS x y z label
SIZE 4 4 4 4
TYPE F F F U
COUNT 1 1 1 1
WIDTH 1461
HEIGHT 1
VIEWPOINT 0 0 0 1 0 0 0
POINTS 1461
DATA ascii
9.4607 18.6327 19.2999 0.0
-0.18965 19.639151 -41.930523 2.0
17.276167 5.535581 -20.447779 3.0
-2.900954 21.604916 -54.816101 2.0
-1.936057 13.470303 9.60598 1.0
6.208172 18.145365 4.726628 0.0
2.256764 17.366062 -32.017963 3.0
0.9762 12.1284 -25.233999 3.0
-0.515525 14.817598 0.487805 1.0
0.3137 21.916 -43.113003 2.0
7.3312 18.173468 10.324967 0.0
17.705799 18.757971 41.784626 0.0
4.725648 12.425456 -24.370186 3.0
-14.536373 -7.872492 49.154831 1.0
-0.218825 27.843252 -57.63171 2.0
21.919483 -2.367638 -8.830371 3.0
-1.1366 18.9662 -36.485199 2.0
0.043208 18.134991 -16.572517 2.0
11.060018 15.631186 20.836523 0.0
1.077917 19.536951 -11.691316 2.0
-0.5995 18.967751 -34.07975 2.0
11.372026 10.325744 -22.632986 3.0
5.40875 20.43405 20.598951 0.0
0.53605 19.775826 -43.994278 2.0
8.451223 16.595726 12.081612 0.0
13.785578 4.305565 -16.209553 3.0
-0.265667 22.512491 -49.840885 2.0
-3.623767 7.8292 23.278435 1.0
0.228202 18.376835 -11.760942 2.0
5.027306 9.535897 -18.35223 3.0
3.27234 19.26656 -4.5336 2.0
-6.166483 14.282949 23.717434 1.0
16.217501 17.6919 36.80975 0.0
9.227405 19.344198 25.378477 0.0
-3.766613 14.812062 15.643974 1.0
11.973709 14.2882 25.076864 0.0
0.593425 14.41265 -1.714125 2.0
-2.638928 24.272501 -60.643452 2.0
0.9501 20.1637 -33.658798 2.0
0.7767 18.618099 -30.28965 2.0
-0.507826 27.132181 -56.591999 2.0
10.002795 6.121984 -16.259501 3.0
1.91885 8.105875 22.480949 1.0
4.07779 18.863583 -6.54975 2.0
17.622532 -0.853984 -10.703212 3.0
5.756004 16.214716 -28.562319 3.0
-10.692483 -3.890917 46.114384 1.0
-18.001163 -14.110577 52.361454 1.0
-1.74645 17.494823 7.14155 1.0
3.916634 16.704166 -13.797295 2.0
20.814909 1.638725 -17.266632 3.0
16.60339 20.166143 45.370121 0.0
19.796925 21.174858 51.613903 0.0
2.228151 15.2487 -29.129593 3.0
-2.259648 6.090271 26.377026 1.0
-2.1621 20.481899 -49.227749 2.0
6.356967 14.673117 7.1589 0.0
-6.177142 12.014041 23.982058 1.0
-1.9015 7.3226 23.279821 1.0
-1.186587 19.321735 -31.36055 2.0
3.675367 14.421134 0.096583 0.0
-0.836114 20.531317 -49.21521 2.0
0.7182 20.387199 -45.049999 2.0
-10.999336 0.885571 39.316891 1.0
-1.200275 12.481629 6.820258 1.0
-17.381327 -7.564838 47.76828 1.0
15.464476 16.556725 34.51815 0.0
-4.597467 10.687066 20.198767 1.0
8.608141 14.100969 -26.1357 3.0
1.9243 14.2073 -1.2995 0.0
7.205477 11.645844 -23.056694 3.0
15.951517 19.809149 42.210613 0.0
17.357513 2.657518 -16.192373 3.0
-3.527352 13.805058 15.114935 1.0
-0.847083 20.816092 -38.27335 2.0
-19.4126 -20.40419 56.90712 1.0
0.9918 16.006201 -30.772301 3.0
-14.823483 -13.488576 55.123817 1.0
5.407782 19.079958 9.984228 0.0
-4.693307 0.61634 36.907833 1.0
-6.558132 8.099894 26.742348 1.0
-15.98586 -3.296415 43.817245 1.0
0.464687 20.837084 -46.384918 2.0
9.58782 19.177776 30.601698 0.0
10.407213 9.061188 -21.454189 3.0
7.663775 19.24345 16.907976 0.0
4.402851 18.987198 6.13103 0.0
18.772926 18.146549 46.04435 0.0
8.863 17.723768 -28.527067 3.0
7.506475 13.703075 14.470675 0.0
16.213757 0.232963 -12.087738 3.0
15.82562 10.901999 -25.272282 3.0
-2.505571 21.670916 -61.767899 2.0
-0.8843 20.19735 -46.013153 2.0
-19.631399 -3.630967 45.425766 1.0
-21.842501 -16.2649 54.505402 1.0
15.618894 19.379833 40.056362 0.0
-1.0493 26.645399 -59.248699 2.0
13.809224 12.763223 -25.035517 3.0
2.978892 18.995096 -0.180843 0.0
12.8885 19.6019 40.844601 0.0
18.364168 20.499653 49.840828 0.0
2.1211 20.576851 -12.69585 2.0
12.332645 17.680744 26.132259 0.0
4.335112 17.307322 -7.7971 2.0
-5.9346 -3.8418 46.287899 1.0
-15.847722 2.291211 40.114777 1.0
-1.888245 22.848202 -50.584351 2.0
-0.086089 16.236795 -7.26155 2.0
0.790064 13.801251 -29.608168 3.0
1.036625 12.910965 -28.210449 3.0
15.20299 1.202564 -12.794946 3.0
2.243617 20.438166 -16.630432 2.0
2.645925 18.723944 3.6825 0.0
-16.764349 -15.868074 54.547852 1.0
-2.405789 13.037167 11.717866 1.0
-14.570412 -4.721683 45.63554 1.0
3.363212 17.586674 -14.500125 2.0
-1.590617 25.798834 -61.037231 2.0
23.217449 -2.5361 -10.60285 3.0
-8.9417 -4.24005 47.095253 1.0
11.004166 18.678864 26.07427 0.0
0.536048 11.377589 10.001381 1.0
2.2933 14.644516 -3.5363 2.0
-12.833126 -7.216974 49.528709 1.0
7.565563 19.71467 22.55744 0.0
11.497255 18.860115 29.223171 0.0
-4.314067 8.957219 21.530169 1.0
18.727438 -1.08478 -8.69984 3.0
0.536099 19.413328 0.5522 2.0
6.770854 18.092838 -29.531952 3.0
4.002102 11.096985 -21.856344 3.0
-3.73667 25.014956 -61.387478 2.0
-18.705399 -10.146626 49.887875 1.0
12.94755 18.132324 29.50185 0.0
-13.149322 -2.212951 43.186905 1.0
1.902615 12.897128 -26.67417 3.0
-22.953796 -17.349874 55.84663 1.0
-8.968156 -2.346747 44.611332 1.0
0.044383 18.037691 -4.020567 2.0
3.647788 19.063669 1.958262 0.0
5.8095 14.831038 -27.209385 3.0
18.7341 18.760401 44.303699 0.0
4.34231 13.213193 4.042653 1.0
-2.505193 16.973013 9.551852 1.0
-3.815223 22.470543 -62.486221 2.0
0.68352 10.496679 12.100879 1.0
1.206573 19.827839 -15.944901 2.0
22.314415 0.32845 -16.01152 3.0
-15.985588 -16.306576 56.812473 1.0
10.626887 18.592875 24.280558 0.0
11.014485 19.007481 30.589724 0.0
11.348385 3.947478 -12.810903 3.0
4.422969 17.983814 -30.628084 3.0
-2.298407 21.046341 -51.223293 2.0
-2.639189 25.101854 -62.046398 2.0
1.991631 11.441494 8.263669 1.0
13.162517 19.02346 34.8321 0.0
-4.444819 1.156484 35.759708 1.0
-7.9826 9.4708 27.479 1.0
0.875657 19.412077 -7.80064 2.0
9.61 14.558574 17.679167 0.0
12.398767 19.109978 37.184525 0.0
0.432133 19.503954 -20.075598 2.0
-2.709183 14.201317 11.809266 1.0
11.342382 17.987005 23.695477 0.0
2.30495 19.512331 -14.838878 2.0
-3.264867 -0.477042 36.633728 1.0
3.5782 14.9853 -5.4438 2.0
0.554687 19.043879 -5.797506 2.0
21.729601 21.121799 53.8657 0.0
-18.383465 -1.615409 43.212181 1.0
-5.421275 -2.257744 43.198059 1.0
17.183599 7.9792 -24.2054 3.0
8.23565 14.526067 13.881249 0.0
-1.105125 18.809675 -27.5424 2.0
-1.607041 22.263092 -46.730659 2.0
-0.273544 17.006962 -2.981217 2.0
7.570541 14.597333 10.690899 0.0
-17.613094 -11.01182 50.498932 1.0
4.515734 13.947101 9.751167 0.0
5.075448 13.814402 2.222627 1.0
-18.02363 -9.24897 49.110527 1.0
-8.578033 4.020395 33.797279 1.0
0.249269 21.174608 -48.449245 2.0
3.392405 19.043222 -10.663877 2.0
16.571363 4.974026 -18.828716 3.0
6.8193 13.4606 16.2472 0.0
5.376922 18.015772 -3.004126 0.0
14.016 15.3724 30.053301 0.0
-4.367631 23.614916 -61.822639 2.0
5.10395 15.222642 0.760113 0.0
-16.581854 -2.576714 43.272278 1.0
8.9628 14.7224 15.7057 0.0
1.7865 20.480101 -23.2327 2.0
4.004507 15.164468 -27.860092 3.0
3.6941 18.6012 -14.3331 2.0
3.9144 17.386917 -10.63385 2.0
8.968022 19.438646 26.805206 0.0
-1.566 23.865999 -57.717701 2.0
2.539858 19.339745 -15.898545 2.0
-0.210933 17.352493 -21.585047 2.0
4.409027 19.007315 0.849481 0.0
-14.220563 -2.963734 43.629452 1.0
-0.546082 5.911568 26.786932 1.0
-12.385817 5.084914 34.871964 1.0
6.8421 17.8815 3.8993 0.0
-1.563405 11.161212 12.838799 1.0
13.079651 14.210837 28.811562 0.0
2.575561 16.663454 -15.61561 2.0
-3.418873 22.184423 -58.602535 2.0
-20.112484 -8.814223 48.915874 1.0
13.5749 15.3203 31.544001 0.0
-5.1682 6.8934 25.165899 1.0
7.10375 16.618351 -27.9599 3.0
-13.818945 -0.876385 41.698841 1.0
-0.426188 17.370979 -0.593702 2.0
8.515272 7.046707 -16.19581 3.0
9.233994 7.494367 -18.367798 3.0
9.290534 11.9479 -23.777399 3.0
3.037942 9.056832 13.826831 1.0
1.596493 12.698917 5.065811 1.0
8.212774 10.134459 -21.732265 3.0
-0.559133 18.994858 -25.130501 2.0
2.991846 17.992607 -20.785284 2.0
7.801478 19.38522 19.082827 0.0
20.187025 0.194945 -14.888832 3.0
-0.894145 10.043844 15.271396 1.0
17.943617 17.72485 42.861767 0.0
0.695787 11.876337 8.278325 1.0
4.907267 18.909344 3.8364 0.0
-14.151628 2.346557 38.751411 1.0
-1.215912 14.219254 5.770625 1.0
2.4035 18.717968 -25.793552 2.0
22.8547 21.599949 56.4958 0.0
7.188067 20.033499 26.040085 0.0
-0.8547 24.8251 -62.786098 2.0
10.909014 18.917793 27.109415 0.0
0.031075 17.006975 -9.560512 2.0
3.987938 11.63413 7.184454 1.0
-21.866264 -26.798666 61.033077 1.0
6.473413 20.20295 23.887211 0.0
-2.941179 10.727296 16.190096 1.0
12.412906 15.954136 24.981033 0.0
0.202922 8.610681 19.013618 1.0
12.367434 18.793549 38.719166 0.0
6.073416 10.862167 -21.903215 3.0
3.607744 18.993433 -9.598959 2.0
-14.976549 -14.862625 56.597298 1.0
-1.928863 12.8185 10.617021 1.0
-7.260581 11.031507 26.016336 1.0
-0.115 17.006701 -5.043975 2.0
-0.204045 18.745113 2.659137 1.0
2.564456 11.984105 6.794656 1.0
2.357187 18.963268 -4.044441 2.0
-4.6842 24.3274 -62.92495 2.0
0.24549 21.437027 -36.576977 2.0
10.256645 18.983471 25.390329 0.0
6.819689 10.298718 -21.273335 3.0
7.9534 6.1667 -12.772133 3.0
2.220019 19.431252 -19.741928 2.0
-21.1756 -21.041401 56.950127 1.0
11.736874 8.53296 -20.865423 3.0
15.122468 0.741212 -10.614776 3.0
-12.6898 -4.16595 45.912048 1.0
1.961507 18.098944 -33.373943 3.0
-21.15925 -12.683942 52.033997 1.0
12.096875 3.576586 -13.516972 3.0
1.599287 18.00643 2.213376 0.0
6.000444 8.795261 -17.335756 3.0
5.795098 12.742458 -24.656847 3.0
-0.47582 12.810075 6.131473 1.0
5.736198 18.320581 2.600252 0.0
-17.028225 -12.758746 51.671246 1.0
16.549522 4.258672 -17.709867 3.0
4.758833 10.323162 -20.194235 3.0
0.568067 13.659157 1.948791 1.0
0.94245 19.191448 -40.018299 2.0
-9.641427 0.09295 40.417652 1.0
-0.17865 21.822563 -51.579163 2.0
-12.5216 -7.8199 50.351101 1.0
5.2761 16.492001 -9.1031 2.0
-10.358344 9.592732 29.565819 1.0
-0.173978 15.203315 -5.407222 2.0
-3.685114 23.291599 -60.323315 2.0
-14.560506 1.248593 40.023552 1.0
-1.04405 24.140499 -61.044601 2.0
9.492947 4.927393 -12.079355 3.0
7.893513 19.661263 28.5688 0.0
7.212317 15.553942 -27.166809 3.0
-1.999543 8.542552 20.500458 1.0
-0.654433 17.035418 0.524217 1.0
5.772838 17.996838 -1.601363 0.0
4.020764 15.629316 -28.900803 3.0
-0.7918 13.3815 2.1682 1.0
3.400597 18.824469 -12.763334 2.0
-8.143909 4.436325 32.815853 1.0
-19.055336 -8.626198 48.814369 1.0
-7.548376 5.321487 31.343386 1.0
11.1152 7.316034 -19.612032 3.0
2.584338 16.308638 -13.48465 2.0
5.04357 15.878945 -3.955078 2.0
2.598469 8.506731 19.023645 1.0
-3.675425 4.405425 30.015612 1.0
9.28701 18.040491 16.569935 0.0
0.857649 20.096569 -22.225447 2.0
-1.45817 16.31057 5.41531 1.0
8.221151 18.687128 15.211266 0.0
5.1307 15.6336 -5.41565 2.0
4.4524 16.980246 -6.477939 2.0
-21.135469 -15.513581 53.775082 1.0
5.809444 19.399769 14.167252 0.0
14.212387 2.711163 -14.456153 3.0
-1.467425 19.723976 -34.818626 2.0
0.996225 21.268774 -38.314274 2.0
20.142023 -1.673016 -8.834792 3.0
10.608793 5.001974 -14.51656 3.0
-1.551217 23.336449 -59.355518 2.0
2.261563 19.148756 -7.157366 2.0
-7.297815 9.214826 26.704594 1.0
1.334397 12.0886 -26.378666 3.0
4.2471 18.608299 -7.5706 2.0
-0.840445 7.146133 23.938251 1.0
-1.572755 21.14806 -54.796509 2.0
3.987917 14.193784 1.208329 1.0
1.8069 18.559601 -35.494598 2.0
20.921692 19.842827 52.21077 0.0
9.279443 19.433899 28.857615 0.0
12.324245 13.943188 26.810432 0.0
1.981171 19.788166 -34.102108 2.0
-0.232467 15.599684 -4.111596 2.0
-13.488194 -11.466193 54.71315 1.0
6.897288 19.923063 21.806217 0.0
0.57835 13.924425 0.337025 1.0
-0.555442 21.08235 -52.707535 2.0
22.195335 -1.852033 -12.296429 3.0
7.812787 19.783371 25.049515 0.0
-1.7852 20.991501 -60.416801 2.0
14.167609 19.105978 36.939106 0.0
9.826934 5.638967 -14.920098 3.0
-0.100167 22.249018 -47.813225 2.0
-7.702 6.26955 30.098299 1.0
4.066968 15.443377 -3.593658 0.0
0.44084 20.221479 -26.08584 2.0
-6.403477 -0.928399 41.65519 1.0
0.8857 15.511108 -7.918917 2.0
0.36955 21.7299 -44.576851 2.0
17.279301 17.9226 39.512901 0.0
-11.300366 -5.9359 49.074665 1.0
1.560234 20.380238 -31.28768 2.0
11.063673 6.550324 -18.30769 3.0
-0.93835 12.744801 5.13945 1.0
9.901125 16.627645 17.232731 0.0
-3.626452 2.30164 33.070671 1.0
-2.0659 11.191 11.8786 1.0
13.66851 16.024221 28.822199 0.0
-5.731134 12.81915 23.14159 1.0
0.551714 6.783966 25.705688 1.0
1.61399 19.764086 -36.606411 2.0
-12.793143 7.517866 32.698524 1.0
16.250443 20.000546 43.541683 0.0
1.260733 17.577116 4.7956 0.0
1.251259 20.167082 -21.180534 2.0
12.022617 12.826907 -24.93931 3.0
-1.497667 9.094356 18.496399 1.0
-8.954001 0.983793 38.77536 1.0
3.657955 19.015957 5.364661 0.0
1.549116 10.947467 10.300648 1.0
-1.600814 22.600718 -48.80167 2.0
10.598483 13.565617 -25.623882 3.0
16.225189 0.269556 -8.686148 3.0
17.987295 19.441238 44.221832 0.0
-3.986667 16.648283 14.86335 1.0
2.7958 16.465401 -17.012199 2.0
-16.493576 -14.222717 53.653061 1.0
16.839199 17.765699 38.309898 0.0
2.187188 17.765675 -24.286963 2.0
-12.749191 0.929521 39.430241 1.0
3.031505 13.673367 1.969338 1.0
-10.974186 6.824068 32.037018 1.0
23.526199 -0.7607 -14.7332 3.0
19.46431 -1.138992 -11.708992 3.0
-0.778162 18.332272 4.408732 1.0
-13.066919 3.14558 37.303215 1.0
-8.84931 8.257151 28.94705 1.0
-0.0328 16.766399 -18.3293 2.0
3.046475 8.708034 15.608781 1.0
1.187433 20.063866 -4.337417 2.0
11.992312 15.966635 23.633152 0.0
-21.60449 -13.475834 52.957886 1.0
8.855442 17.650507 14.188238 0.0
-0.220441 18.416683 1.191072 1.0
4.645125 19.766182 14.803337 0.0
-0.412833 18.4188 -29.899618 2.0
3.021586 19.026377 10.732799 0.0
14.506821 5.42286 -18.348148 3.0
-3.2609 9.34415 17.976349 1.0
-19.402031 -18.058081 55.143597 1.0
16.547152 2.479282 -15.276076 3.0
-9.110267 6.281533 31.499033 1.0
0.187431 9.587462 15.599004 1.0
2.113325 20.549702 -35.813576 2.0
-13.123349 2.254602 38.382397 1.0
7.979475 17.2318 10.6168 0.0
0.066833 18.753901 -0.244657 2.0
-6.394466 -2.820867 44.738201 1.0
-20.211763 -23.610878 60.9977 1.0
-5.1735 14.484301 22.1334 1.0
-7.815367 1.818 37.135948 1.0
-3.947908 12.802828 17.251749 1.0
-2.17775 17.360334 8.539139 1.0
0.17508 19.377155 -39.407997 2.0
-0.157794 17.395504 -14.548388 2.0
4.32555 18.318249 -11.3295 2.0
12.452283 18.018036 27.446115 0.0
0.347342 19.275084 -3.01575 2.0
-1.313664 13.818366 6.765852 1.0
7.516479 19.537121 20.220585 0.0
14.506635 1.263015 -11.736073 3.0
-0.898155 26.762386 -57.871735 2.0
-0.58323 19.337099 -30.304235 2.0
-1.637088 20.1824 -44.339401 2.0
7.0228 17.1612 6.0665 0.0
-1.1003 18.615999 -26.2005 2.0
6.903467 7.615597 -15.189444 3.0
6.838944 19.049536 12.77195 0.0
3.98648 15.238242 -2.595631 0.0
14.3649 20.0207 43.699799 0.0
-23.563286 -24.015404 58.932831 1.0
17.67868 -0.507994 -8.638072 3.0
9.007379 5.915315 -14.124102 3.0
-20.804045 -17.345104 54.723866 1.0
10.889033 17.57209 21.207417 0.0
-17.373487 -15.546819 53.79364 1.0
-8.187574 -1.413275 42.674175 1.0
4.364742 19.071207 -31.131918 3.0
0.587478 19.362181 -16.944155 2.0
-0.554067 22.156258 -42.566288 2.0
-21.227827 -22.949686 58.274307 1.0
17.989754 1.219575 -14.564058 3.0
2.360437 19.095673 -21.854053 2.0
7.500664 18.982803 14.597113 0.0
-17.967005 -19.483749 57.545757 1.0
1.856775 7.857525 23.73665 1.0
-15.839749 3.959784 38.962631 1.0
7.089315 14.876963 8.647893 0.0
-10.680189 8.936175 30.228304 1.0
5.0583 20.4088 18.374975 0.0
2.7156 9.7705 11.67065 1.0
-18.45615 -20.783527 58.96986 1.0
-1.72556 13.703671 8.591961 1.0
-3.2879 6.38515 26.3479 1.0
11.88895 14.7624 -25.726051 3.0
2.598361 12.668557 4.992868 1.0
-14.084599 -10.738434 52.891003 1.0
-1.569833 7.681967 22.352783 1.0
-0.909567 16.585234 1.962312 1.0
-0.399233 13.868335 0.095367 1.0
-1.7207 11.667 10.1427 1.0
-19.119289 -21.858847 59.029877 1.0
14.214133 11.804316 -24.598158 3.0
3.983866 19.027292 8.195111 0.0
-8.624592 0.463004 39.720528 1.0
-0.9586 18.3729 -24.348101 2.0
-0.01835 19.611649 -23.86235 2.0
-2.890197 21.566729 -55.796532 2.0
4.2785 18.2654 -12.4088 2.0
-15.1232 5.322 36.243401 1.0
-1.188042 19.101809 -37.587959 2.0
-1.6164 20.9347 -58.188202 2.0
1.4588 19.935801 -13.359833 2.0
3.2868 15.1985 -6.7333 2.0
-11.6013 -7.981 51.657001 1.0
22.626173 -1.24952 -13.188684 3.0
15.811717 16.65411 35.846863 0.0
9.634382 13.681833 21.55245 0.0
-18.1535 -4.5265 45.647499 1.0
-5.791065 8.220615 25.349386 1.0
-7.205908 -3.600871 46.386597 1.0
7.0422 8.835533 -18.5222 3.0
-12.10255 8.211535 31.725271 1.0
9.553851 8.906682 -20.481449 3.0
13.081563 16.22234 27.072845 0.0
-17.14954 -18.292719 58.10957 1.0
3.000841 19.011944 -2.309934 0.0
5.2081 16.3262 -0.6824 0.0
1.610714 20.377058 -27.116486 2.0
4.233925 17.719175 -9.559425 2.0
-18.263 -19.44805 59.06575 1.0
1.9492 18.830999 9.4127 0.0
1.1882 18.040375 -25.2903 2.0
-0.851275 22.925283 -53.801826 2.0
-1.933512 1.202907 33.033226 1.0
0.940225 7.3607 24.623775 1.0
-15.3783 -14.0582 54.548149 1.0
-0.827881 21.144703 -39.428757 2.0
-11.017196 -3.042688 44.983452 1.0
4.014492 11.67395 -22.674042 3.0
-22.240011 -19.430607 56.548828 1.0
-19.318401 -3.0002 44.675148 1.0
15.932361 8.575693 -23.006746 3.0
0.204533 8.175672 20.741306 1.0
5.309477 19.951145 16.732815 0.0
-18.728603 -20.39082 57.591675 1.0
17.804249 0.5024 -8.35265 3.0
14.898246 18.091469 34.499508 0.0
8.631257 19.465155 24.627726 0.0
3.616425 16.580624 -8.140075 2.0
-3.13694 13.703501 13.7348 1.0
-9.322353 7.572434 30.009706 1.0
5.402893 14.105286 -26.481956 3.0
-0.132625 11.08669 11.461123 1.0
3.316557 18.414755 -16.586573 2.0
-0.3952 14.498301 -3.6795 2.0
8.6623 16.834249 -27.566 3.0
14.251225 9.349725 -22.806576 3.0
8.971278 11.059947 -23.252777 3.0
19.370996 20.753162 49.556301 0.0
15.196568 3.013701 -15.204722 3.0
-9.5838 4.155303 34.135693 1.0
1.73795 19.182949 -10.000999 2.0
6.431731 8.335758 -16.60663 3.0
4.007461 19.542656 13.151077 0.0
1.54025 17.566866 -21.509415 2.0
-0.60495 1.557437 32.064011 1.0
19.012213 19.169876 47.723175 0.0
3.340544 8.544277 17.347927 1.0
20.466175 0.768517 -15.704108 3.0
-0.45245 14.200376 -1.43385 1.0
-2.863133 21.588999 -53.803822 2.0
10.6096 18.205999 21.8752 0.0
3.333125 18.754799 -21.450075 2.0
-3.284822 11.736804 15.935534 1.0
3.593475 10.2623 10.275967 1.0
6.429154 9.487623 -19.451721 3.0
-8.10695 -4.89095 49.0779 1.0
-0.68255 22.248451 -44.906548 2.0
8.61785 15.242875 -27.020262 3.0
5.800383 19.529678 -30.839756 3.0
12.677421 18.58086 31.095165 0.0
15.926725 18.837734 38.646683 0.0
16.727182 -0.446892 -10.373517 3.0
-2.49714 5.24642 27.843359 1.0
3.96654 14.807047 -0.89934 0.0
-3.939993 3.392536 31.710165 1.0
-12.023181 5.899802 33.77615 1.0
20.263649 -2.21965 -10.25675 3.0
16.22752 1.907386 -14.256487 3.0
0.164778 18.017355 -7.910178 2.0
-18.410685 -15.61011 53.403206 1.0
8.5675 17.9053 12.3322 0.0
-1.042425 20.251751 -37.091274 2.0
15.317913 1.713307 -13.673501 3.0
-14.864107 2.969968 39.002907 1.0
0.184 15.4489 -30.9722 3.0
0.1243 21.507401 -49.768505 2.0
-3.902475 8.605526 20.516788 1.0
-15.863734 -12.816734 52.920101 1.0
9.650472 18.092083 18.366039 0.0
2.9792 17.139299 -13.7492 2.0
-4.7536 7.5221 23.534201 1.0
2.598134 11.011301 8.867584 1.0
2.311317 14.507937 -28.180622 3.0
-0.242894 12.282771 8.232118 1.0
-7.856547 8.226761 28.19536 1.0
15.182413 8.559499 -22.307428 3.0
8.8511 16.071199 12.7688 0.0
-16.6222 0.86329 41.103374 1.0
-1.547628 20.436876 -40.384991 2.0
17.263226 17.577999 41.135826 0.0
-0.062388 21.075638 -51.003201 2.0
3.6708 17.7771 -15.610125 2.0
22.201534 -0.070793 -15.156734 3.0
-14.607075 4.380175 37.499916 1.0
-22.880585 -15.574117 54.982265 1.0
6.399389 13.455289 14.841817 0.0
-0.217636 18.355648 -26.433435 2.0
-9.352 -3.14024 45.675323 1.0
10.72195 14.056801 22.49115 0.0
11.29192 10.955139 -23.33773 3.0
0.302 18.658768 -13.038867 2.0
-17.017056 -8.239155 48.43552 1.0
-7.9621 11.11625 26.9536 1.0
20.774982 -0.971554 -13.189748 3.0
3.9911 12.687384 5.080925 1.0
-2.559663 23.548227 -56.58865 2.0
-1.530013 19.829096 -38.711399 2.0
4.7072 12.389524 5.85835 1.0
13.220592 5.137137 -17.384909 3.0
15.0749 3.8618 -16.377476 3.0
-0.4075 17.9039 -17.6565 2.0
13.569016 1.658158 -9.61615 3.0
-0.199947 17.032509 -12.059871 2.0
-1.6438 23.564211 -53.435287 2.0
-14.07495 -3.34545 44.479897 1.0
-2.1821 21.47715 -45.357048 2.0
-12.420689 -3.33079 44.578499 1.0
2.215316 9.584159 13.094586 1.0
-0.5743 14.5491 2.789 1.0
20.4123 20.690201 51.090199 0.0
4.75817 19.212189 11.304103 0.0
1.995989 8.278929 19.795498 1.0
-3.760283 24.765936 -60.346226 2.0
-2.188941 -0.4549 34.859993 1.0
14.5247 16.047249 34.547901 0.0
5.79132 15.583107 2.627887 0.0
8.16115 12.886999 17.831949 0.0
-17.279638 -6.101463 46.51664 1.0
-0.559389 21.189211 -54.080311 2.0
7.146929 7.13696 -13.812809 3.0
-12.400315 -2.580567 43.61869 1.0
14.151125 15.759375 33.175976 0.0
11.3884 19.2584 36.389599 0.0
6.111383 13.818588 11.3451 0.0
0.154735 22.155998 -46.778481 2.0
-14.567613 -2.14095 42.660439 1.0
-2.204054 20.78581 -47.416012 2.0
15.575814 5.733278 -19.05409 3.0
2.600334 8.196257 21.844551 1.0
0.178244 20.493824 -47.708267 2.0
3.125 10.1832 -19.133301 3.0
0.21185 4.097363 29.677563 1.0
2.88825 18.90555 -17.913151 2.0
-4.411809 4.383748 30.592939 1.0
0.512203 5.339867 28.547071 1.0
17.630245 -0.500542 -11.722903 3.0
4.80797 18.022469 -5.815118 2.0
-2.289933 21.514334 -58.926968 2.0
1.4087 20.399725 -37.9902 2.0
1.609013 20.822582 -34.825619 2.0
-0.443983 17.339251 -33.110615 3.0
3.892033 13.973433 -26.725 3.0
-7.191267 -4.177533 47.831047 1.0
-2.233608 10.722209 14.56652 1.0
5.6252 15.7327 1.3391 0.0
2.046128 18.581856 -0.604461 0.0
2.4503 7.4926 25.237301 1.0
-3.019908 3.336704 31.273457 1.0
10.6831 5.5563 -16.5469 3.0
4.605934 18.602066 -4.6692 2.0
-0.103071 16.272543 -8.938126 2.0
-7.280141 1.08008 38.27774 1.0
-0.177546 19.788795 -43.190659 2.0
19.681391 -0.603568 -12.841763 3.0
2.006323 19.494179 -24.61982 2.0
5.93605 19.576099 16.122551 0.0
2.985672 16.48348 -30.3162 3.0
5.420889 18.046198 -3.930956 2.0
-18.494165 -17.242067 54.516331 1.0
-7.0503 9.67515 25.885201 1.0
-5.6042 10.7634 22.988199 1.0
6.6739 12.64915 -24.34145 3.0
-1.393 25.217899 -62.0033 2.0
-13.802741 -5.695692 46.79105 1.0
-0.0238 18.1768 -6.5204 2.0
-0.9572 8.4098 20.588301 1.0
13.806313 19.670008 40.74015 0.0
-0.76926 10.764999 13.105987 1.0
9.8198 18.965799 34.487301 0.0
10.24908 14.32558 19.522221 0.0
-5.820743 0.098294 39.29229 1.0
17.517019 20.094301 48.446381 0.0
-2.8021 10.1501 15.4839 1.0
-23.443649 -18.499424 56.777451 1.0
2.27435 15.366501 -7.872267 2.0
11.441628 15.608479 -26.443468 3.0
-2.968013 24.617844 -59.037785 2.0
3.230618 17.637264 -31.680752 3.0
13.010203 15.217216 27.190477 0.0
1.514733 9.454917 14.703383 1.0
-1.68605 25.04845 -57.962502 2.0
7.8163 18.211201 11.8723 0.0
0.334125 18.916901 -14.910725 2.0
-20.059166 -13.020767 51.751465 1.0
10.3792 15.494634 -26.428335 3.0
-0.206575 19.023426 -33.048378 2.0
0.4297 18.793301 -4.7623 2.0
-2.284955 25.815142 -58.975887 2.0
8.3883 13.4637 19.6434 0.0
0.4244 22.109951 -40.479202 2.0
19.30085 19.355049 46.874252 0.0
5.2412 14.6692 6.6159 0.0
3.079939 20.17701 -32.822498 3.0
15.131083 16.334099 33.199871 0.0
0.14135 20.582609 -31.005024 2.0
-21.899 -18.121733 55.657589 1.0
7.220868 16.230564 7.185618 0.0
-19.79619 -14.585077 52.727379 1.0
4.03053 19.066647 -4.019977 2.0
-5.803855 -0.80166 40.833263 1.0
0.093213 15.867129 -11.413839 2.0
5.01527 19.368887 12.834523 0.0
0.20738 20.747553 -32.039207 2.0
11.762859 18.912409 31.349325 0.0
10.2672 3.7591 -11.0349 3.0
0.570904 19.193314 -38.031284 2.0
-21.200499 -10.985113 50.71315 1.0
18.832308 2.586955 -17.303282 3.0
19.145382 0.22565 -14.076595 3.0
-6.742507 1.649273 36.627712 1.0
-6.298086 -1.719086 43.047115 1.0
2.989656 10.643178 -20.788486 3.0
-1.658787 14.444066 7.535467 1.0
-10.036453 -4.119707 47.082336 1.0
-3.719384 9.981642 19.063879 1.0
-0.2565 22.261799 -55.217499 2.0
3.347596 16.990475 -15.265059 2.0
-6.135325 9.997455 24.374857 1.0
-10.978651 -6.541164 49.806572 1.0
1.588241 8.675381 17.012211 1.0
-1.21746 20.715954 -51.332886 2.0
5.373381 18.362577 -0.59701 0.0
12.030076 6.163763 -18.384705 3.0
6.562043 18.847902 10.617043 0.0
2.584758 13.094175 -25.834091 3.0
-6.0562 0.9867 37.425301 1.0
4.750896 19.025316 4.719836 0.0
-0.23622 6.467188 26.017046 1.0
0.89532 10.073961 13.15966 1.0
-5.626033 13.798859 23.178024 1.0
-0.797007 8.687958 19.034775 1.0
8.553855 12.381785 -24.295317 3.0
4.728949 18.905476 -1.23095 0.0
-1.0986 2.7026 31.10585 1.0
-9.1071 1.746325 37.287952 1.0
-3.317651 -1.146039 38.04409 1.0
22.866161 21.188532 57.298668 0.0
7.884136 11.099815 -22.821991 3.0
-2.482567 23.143732 -53.875103 2.0
-0.9763 23.212299 -50.763699 2.0
2.248804 18.401546 5.800446 0.0
7.515769 17.369326 8.658061 0.0
8.611733 13.311674 -25.063168 3.0
1.641956 18.041018 8.1016 0.0
8.483481 17.889729 13.293959 0.0
2.8418 16.785801 -18.4268 2.0
4.1024 16.84795 -12.1432 2.0
-21.214764 -25.379932 60.418495 1.0
0.816358 20.485874 -43.268105 2.0
2.233832 14.878708 -5.074753 2.0
-0.183461 2.976299 30.970673 1.0
-1.635817 20.954584 -52.913296 2.0
16.560965 7.123491 -21.878075 3.0
8.7572 18.891001 30.4111 0.0
-20.160091 -20.077967 56.528587 1.0
-13.786695 -9.599899 51.585732 1.0
-10.357674 -0.913528 41.823071 1.0
-19.422739 -10.615728 50.155872 1.0
14.29 19.220001 37.857548 0.0
-1.924782 6.54676 25.412333 1.0
3.3449 11.648 6.5077 1.0
3.1912 17.806 -19.4837 2.0
-3.319796 23.233442 -57.214138 2.0
-1.463462 17.95233 6.42474 1.0
1.36105 18.62175 -7.5751 2.0
-18.41544 -7.52714 47.822662 1.0
-3.371066 21.898361 -61.807316 2.0
12.069533 9.8513 -22.332209 3.0
3.60203 19.307535 11.758697 0.0
-17.959059 -3.267427 44.25919 1.0
3.652816 10.408104 -20.036167 3.0
1.196333 18.301033 -33.791672 2.0
-5.406825 2.349715 34.52552 1.0
1.944011 18.29842 2.984811 0.0
1.148794 6.199588 27.198631 1.0
-0.521587 19.754421 -29.185013 2.0
-0.5741 15.595 -6.4447 2.0
7.830385 14.79941 11.77101 0.0
8.248933 8.99752 -20.148594 3.0
17.936211 6.124289 -22.252136 3.0
-9.958447 0.94924 38.715469 1.0
-13.190678 6.453884 33.844357 1.0
-2.8389 21.3209 -49.300499 2.0
-18.341774 -5.756771 46.442471 1.0
2.510966 18.470299 -24.7258 2.0
-19.787558 -6.502235 47.376804 1.0
-11.003606 -1.546534 42.539677 1.0
13.6052 17.375351 29.629284 0.0
0.812338 20.257 -24.313862 2.0
18.259001 0.0396 -12.5301 3.0
1.3519 17.857401 6.6797 0.0
6.604199 17.010418 4.008427 0.0
6.454478 19.056059 11.732462 0.0
4.8337 13.9697 1.3643 1.0
13.772842 3.332877 -14.914265 3.0
6.752224 19.363008 14.906308 0.0
-15.230879 -8.513428 49.170963 1.0
9.313157 7.947171 -19.283857 3.0
2.83695 19.48465 -25.68775 2.0
0.609578 14.999725 -5.044652 2.0
0.611849 17.837175 -23.222509 2.0
11.602933 15.269095 22.67613 0.0
1.7424 20.119318 -28.86886 2.0
-22.882383 -27.897333 62.35405 1.0
-0.32435 17.726101 -24.1959 2.0
-2.758033 11.975092 14.149384 1.0
-2.568807 8.321042 21.195013 1.0
7.492483 12.887401 16.271175 0.0
19.101101 19.996651 48.475853 0.0
-0.212616 9.264488 16.963614 1.0
9.221231 6.458307 -15.976333 3.0
8.976546 15.60036 13.801059 0.0
2.578837 12.993762 4.002538 1.0
-0.198242 17.997974 -2.012317 2.0
14.065442 6.74095 -19.551842 3.0
-16.536167 -16.700855 56.112404 1.0
0.523094 19.055374 -13.836138 2.0
17.363428 4.636428 -19.067453 3.0
-3.931819 -0.056407 37.029877 1.0
-4.029632 7.472999 24.035835 1.0
2.642131 19.357727 -8.002062 2.0
11.676753 18.604242 27.821432 0.0
15.460361 18.307377 36.223167 0.0
20.6646 -0.8616 -7.9304 3.0
1.187367 19.807545 -8.588346 2.0
-7.6836 -1.749267 43.655102 1.0
-17.971739 -18.736998 56.499363 1.0
9.95572 13.175517 -25.059978 3.0
6.796908 14.847087 -26.817461 3.0
1.5945 19.87755 -18.36875 2.0
-10.636353 -5.448533 48.719467 1.0
-2.3536 24.2285 -59.795101 2.0
10.092543 18.800236 23.614014 0.0
-0.962817 19.847303 -32.764484 2.0
-14.614159 -1.219104 42.067345 1.0
9.990294 8.182371 -19.828457 3.0
-11.399471 2.689078 36.979763 1.0
-13.767392 5.839329 34.875786 1.0
4.1986 16.1201 -5.155 2.0
1.237125 12.16045 6.526275 1.0
6.175925 13.562862 13.14295 0.0
6.6497 15.4893 7.0293 0.0
-0.581883 22.674871 -52.336662 2.0
-13.107567 -1.230275 42.068924 1.0
-0.4683 22.165564 -53.389656 2.0
2.301758 15.188849 -6.727217 2.0
-0.070133 15.912399 -32.501266 3.0
-0.877208 12.210943 8.905035 1.0
-4.140312 15.608838 18.025064 1.0
8.21525 19.042582 17.624996 0.0
-0.111962 18.344925 -18.364437 2.0
13.18991 13.51279 -25.357832 3.0
-15.966635 -15.193789 55.144005 1.0
15.935014 20.033661 44.61734 0.0
13.755394 1.859555 -11.392561 3.0
-3.591949 22.204473 -60.777508 2.0
4.776456 10.785862 -21.5676 3.0
-0.5848 16.683327 -12.812349 2.0
-7.210844 3.99909 32.744152 1.0
8.554613 19.0089 18.775074 0.0
-5.4777 6.5676 26.020599 1.0
2.208647 10.741159 -22.248587 3.0
18.757978 -1.572333 -10.000421 3.0
6.505716 15.247982 6.152687 0.0
17.6369 7.33 -23.8389 3.0
-2.682471 21.485405 -52.004677 2.0
5.355556 18.961166 7.864045 0.0
5.97678 16.697819 1.12092 0.0
-8.569662 6.799692 30.342236 1.0
1.4415 21.1371 -41.725899 2.0
2.578842 17.57725 -20.140825 2.0
11.637687 14.226642 23.989178 0.0
0.1498 21.355801 -34.878899 2.0
16.614594 19.012144 40.402786 0.0
3.985403 13.217239 -25.672256 3.0
-19.744987 -21.591997 57.895626 1.0
9.998667 14.540634 -26.019432 3.0
3.978413 16.235783 -9.619541 2.0
0.868942 20.137096 -42.178112 2.0
-0.851533 18.181234 -23.120234 2.0
-0.817415 6.554052 25.173059 1.0
-4.820689 -2.002451 42.202278 1.0
-14.167782 -11.802378 54.014771 1.0
10.2673 16.889 -27.373699 3.0
1.637835 18.243366 -1.56048 2.0
-3.013959 23.695234 -58.601612 2.0
-3.862 23.458099 -59.281799 2.0
-3.331036 1.586373 33.766117 1.0
21.581018 -2.545903 -9.608318 3.0
21.822861 21.177795 54.749977 0.0
3.9612 15.6285 -7.7567 2.0
6.787206 19.390137 16.261417 0.0
-2.625593 4.388928 29.594978 1.0
-0.179437 13.385389 3.39617 1.0
2.513742 18.978704 -22.947763 2.0
3.490883 17.388124 -12.843166 2.0
-6.684814 5.499115 29.7411 1.0
2.31355 19.80035 -17.212 2.0
-2.312717 21.428082 -57.593288 2.0
5.63975 20.01915 17.6523 0.0
9.656935 18.448696 20.122475 0.0
-6.735976 6.879498 28.279427 1.0
4.2828 19.840168 -31.556334 3.0
5.5355 8.747126 -15.95215 3.0
7.18161 12.070033 -23.948973 3.0
-3.68662 15.201918 14.876659 1.0
0.4009 10.2278 13.8596 1.0
11.826566 17.722446 24.613455 0.0
11.408476 18.978842 32.358421 0.0
4.415417 9.52174 11.334002 1.0
4.788441 15.19075 -1.840633 0.0
1.614331 17.735418 -22.632309 2.0
-1.2788 20.591499 -55.6959 2.0
4.6334 15.716 -6.8579 2.0
-6.845711 4.695117 31.330221 1.0
3.3162 15.93995 -11.8605 2.0
-1.1066 19.0149 -28.6194 2.0
-8.18398 5.063812 32.031036 1.0
-0.802567 22.719057 -49.148148 2.0
-0.9768 24.993799 -59.343201 2.0
19.374399 -0.1603 -8.1075 3.0
10.25795 6.40365 -17.112301 3.0
5.923975 13.569574 -25.902725 3.0
-11.742502 1.197241 39.013359 1.0
7.50448 17.6668 -28.915218 3.0
0.084811 19.807356 -46.848057 2.0
-1.0485 25.9659 -60.230999 2.0
9.900949 4.966739 -12.888859 3.0
-2.307725 10.152412 16.311325 1.0
13.4902 16.8766 27.6301 0.0
20.2943 20.9893 52.765202 0.0
-11.802686 1.907495 38.059296 1.0
-21.792862 -11.969162 51.719261 1.0
2.028117 18.069084 -26.356333 2.0
-0.0156 17.729351 -13.52035 2.0
-4.072043 16.321144 16.577019 1.0
-0.6478 14.113 3.7708 1.0
0.192789 7.213225 24.022007 1.0
8.80765 18.595551 17.1059 0.0
3.868925 8.448626 19.08345 1.0
1.292133 10.481033 11.495866 1.0
13.213589 10.421439 -23.317766 3.0
11.13585 14.111333 25.023636 0.0
-8.602559 -3.640281 46.40086 1.0
-1.859579 20.219622 -41.771854 2.0
-3.04688 -0.208388 35.849869 1.0
-6.776897 3.360457 33.817722 1.0
10.145588 15.071438 18.34515 0.0
-19.388927 -15.353153 53.311268 1.0
17.685387 19.35759 43.196716 0.0
-16.601685 -5.700615 46.085175 1.0
4.897586 18.852827 2.939943 0.0
-10.978971 -2.500552 43.987354 1.0
-3.216472 21.952955 -56.490295 2.0
5.3133 13.3606 4.1534 1.0
0.92534 20.444563 -25.417934 2.0
23.3286 -0.88956 -13.8095 3.0
-10.993698 3.729139 35.598816 1.0
1.266 17.933859 -3.241775 2.0
4.9532 18.165199 -7.757 2.0
2.2215 19.05723 -27.421463 2.0
-0.792925 20.08783 -35.195587 2.0
9.577767 14.907992 16.284338 0.0
-22.632854 -21.219402 57.525501 1.0
2.828507 18.041512 -21.884485 2.0
-4.4883 15.46175 20.88365 1.0
-22.543449 -14.477288 54.10675 1.0
7.123924 13.783959 -26.028248 3.0
0.029617 15.62095 -10.039433 2.0
-4.433171 5.324418 28.818674 1.0
-21.894384 -23.511166 58.397926 1.0
-21.699499 -25.954 62.069698 1.0
-2.810383 22.465782 -52.013901 2.0
5.425 17.1511 -29.0327 3.0
2.97389 15.989911 -10.669157 2.0
-3.404457 15.226108 13.424664 1.0
-1.399 20.9891 -53.937599 2.0
17.480101 18.6716 42.601398 0.0
2.27595 13.583338 1.587063 1.0
1.1816 17.4891 0.2494 2.0
0.4651 16.134399 -31.4986 3.0
21.581789 1.607652 -18.395105 3.0
-0.6605 17.15065 -16.0903 2.0
-0.2846 17.985201 1.9269 2.0
-3.008721 17.296589 10.998322 1.0
-15.052751 -13.143909 54.365292 1.0
12.389639 15.211791 25.39362 0.0
-8.608936 12.402991 27.098167 1.0
-17.8668 -16.72155 54.75375 1.0
7.815485 17.960505 11.061592 0.0
9.971852 10.639301 -22.714329 3.0
5.722883 17.004189 -0.192392 0.0
15.183702 4.717569 -17.638317 3.0
14.536127 10.734205 -23.956926 3.0
6.838218 7.898579 -15.985843 3.0
10.431797 17.730753 20.206331 0.0
12.510033 4.4876 -15.8525 3.0
7.08158 17.898954 7.601833 0.0
19.395895 3.365481 -19.024599 3.0
10.035579 13.80067 20.150961 0.0
3.69185 14.601 6.94705 0.0
8.145275 19.630987 23.220348 0.0
0.155811 16.382347 -13.161374 2.0
-0.054417 18.927351 -20.4562 2.0
11.515271 17.402681 23.110088 0.0
17.7922 18.4375 44.118401 0.0
18.360004 3.597511 -18.446121 3.0
-8.190286 3.339024 34.155819 1.0
3.644228 17.357716 -30.985266 3.0
-1.068933 17.899033 5.112934 1.0
0.220203 7.523959 23.187767 1.0
-2.597848 9.366579 18.772804 1.0
16.212627 3.597253 -16.74061 3.0
1.892 18.105099 4.0169 0.0
-21.584871 -24.370735 59.11174 1.0
-19.5931 -22.824699 59.780899 1.0
0.67955 12.24265 7.3107 1.0
-12.374852 -10.024675 53.804443 1.0
-0.888433 22.907751 -57.624683 2.0
-9.3809 11.2439 28.0704 1.0
1.949589 20.211117 -14.497855 2.0
3.909162 8.5178 14.165937 1.0
0.798738 15.316575 -6.726712 2.0
-2.905675 9.094175 19.517576 1.0
13.869523 8.266852 -21.44528 3.0
-0.566213 4.0271 29.99259 1.0
4.9193 16.313301 -2.91125 0.0
10.2865 19.254135 28.7703 0.0
-3.698078 0.793475 35.479019 1.0
-4.335831 24.655031 -62.06562 2.0
-13.433849 -0.152976 40.833134 1.0
14.845095 1.119671 -8.616422 3.0
-0.73945 20.710651 -36.224548 2.0
-13.175946 -6.432813 48.513401 1.0
14.45075 4.1694 -16.849825 3.0
6.1903 19.9356 19.996099 0.0
-4.048418 -0.902353 38.992344 1.0
19.555649 19.875198 49.733398 0.0
-5.5406 1.8309 35.862701 1.0
1.6878 19.153833 -9.020433 2.0
14.588448 19.459621 39.304131 0.0
-14.186913 5.340405 35.867115 1.0
20.859753 2.353639 -19.378702 3.0
-15.4218 -12.1209 52.759899 1.0
-0.413481 15.234523 -0.920583 1.0
0.299271 20.326502 -27.914057 2.0
16.56571 6.077671 -20.463573 3.0
3.733 16.373068 -30.840599 3.0
-18.795082 -12.932792 51.84005 1.0
3.001517 10.993088 -21.809259 3.0
-9.235984 -4.981536 48.461609 1.0
-9.591317 -4.524778 47.77467 1.0
-15.205276 -3.343263 44.119801 1.0
12.890408 17.781641 28.120626 0.0
-19.923 -9.7962 49.864601 1.0
0.530642 20.795563 -29.945257 2.0
16.98354 19.177853 41.417843 0.0
-15.256843 -4.401558 45.278126 1.0
-0.7119 17.635799 -19.2819 2.0
9.242849 13.507342 18.411015 0.0
15.148933 17.190332 32.966663 0.0
-0.149533 16.200975 -4.753658 2.0
11.318939 18.873213 35.178391 0.0
-0.907811 19.510754 -39.395061 2.0
11.358012 4.694066 -14.848993 3.0
-1.3962 12.9654 8.3784 1.0
12.844761 18.386091 30.29949 0.0
12.460751 19.26515 38.0215 0.0
12.131706 19.000137 32.776119 0.0
6.737733 19.618467 17.726 0.0
1.643275 11.38305 -23.41885 3.0
7.565546 18.805126 13.784332 0.0
22.209774 -2.363983 -10.125818 3.0
1.865417 20.252001 -33.418419 2.0
1.204207 20.805864 -39.333179 2.0
18.318283 20.36783 47.014858 0.0
1.222904 15.815166 -10.008431 2.0
-20.542768 -24.403534 60.764282 1.0
16.063234 16.248299 37.251358 0.0
-10.984382 5.524197 33.469402 1.0
12.801804 3.059385 -13.437901 3.0
-2.582325 12.398867 13.109688 1.0
-4.038496 23.630005 -60.997681 2.0
10.8818 16.628799 19.207399 0.0
0.861941 16.625212 -15.258242 2.0
-0.01815 17.51305 -6.01865 2.0
-0.93555 14.081475 1.54315 1.0
-5.196207 8.515972 23.935242 1.0
15.621135 10.388934 -24.612747 3.0
7.9627 13.759633 15.230267 0.0
1.8942 16.320234 -14.156034 2.0
2.380633 21.471016 -33.414783 2.0
17.504499 6.0267 -21.1912 3.0
-0.491283 10.130834 14.549466 1.0
6.767828 17.949873 6.128472 0.0
22.8815 22.0681 57.804001 0.0
-15.208026 0.594953 40.791069 1.0
21.874802 20.527168 55.453613 0.0
-20.422997 -23.32478 59.270515 1.0
7.177779 20.066746 24.35438 0.0
-11.1987 -9.1384 53.015598 1.0
5.80878 18.3249 -30.013222 3.0
-7.822927 -0.489667 41.143311 1.0
8.4284 15.3436 12.1556 0.0
-1.624816 21.824896 -60.675461 2.0
-0.84405 17.318117 2.375992 1.0
3.8586 18.141199 -18.430799 2.0
-7.146038 11.804342 25.721367 1.0
14.569509 19.799801 42.234188 0.0
-11.442374 -5.042003 47.433159 1.0
-13.473468 -10.055869 52.332878 1.0
-21.215794 -18.028044 55.200245 1.0
4.467234 14.512349 -0.250167 0.0
2.731247 18.7861 -19.821573 2.0
-12.434044 -9.549017 52.675488 1.0
19.37746 1.929859 -16.716787 3.0
-5.708775 0.31275 38.499638 1.0
3.5702 17.045074 -11.320126 2.0
18.707533 4.305039 -19.897091 3.0
8.222095 8.63068 -19.406635 3.0
-12.359179 -0.08427 40.446232 1.0
5.338783 13.9885 9.712549 0.0
12.667118 3.583677 -14.311949 3.0
2.26885 19.4249 -31.757851 2.0
-15.507884 -11.52502 51.936108 1.0
-1.187193 19.451527 -35.544247 2.0
3.642085 18.972559 6.811909 0.0
-9.582458 -5.795344 49.846863 1.0
-0.15765 16.872299 -10.407001 2.0
12.49776 2.759638 -11.35746 3.0
-16.884912 -4.901387 45.464127 1.0
5.2255 18.855801 6.185 0.0
2.2511 10.86385 9.87925 1.0
12.176805 16.590845 24.369576 0.0
-0.314734 22.000195 -41.100479 2.0
-4.605834 11.454366 19.903168 1.0
4.709538 9.082088 -17.335762 3.0
-9.6054 -0.577898 41.47974 1.0
1.999 19.5732 -13.8624 2.0
15.7344 16.10605 36.454651 0.0
0.8323 21.56945 -46.44685 2.0
-20.158001 -7.208818 47.767872 1.0
0.096511 20.843897 -49.185658 2.0
8.206158 19.680038 27.12405 0.0
18.4491 18.97555 46.355698 0.0
-12.769625 -4.769375 46.630653 1.0
-9.86855 -6.1578 50.560051 1.0
-0.831004 20.709082 -50.608551 2.0
1.956687 19.748144 -21.206358 2.0
8.229707 13.122401 17.026308 0.0
-0.235026 10.950215 12.312172 1.0
17.343838 0.908354 -13.463896 3.0
6.726233 14.233233 9.018883 0.0
2.8503 12.0197 5.9046 1.0
0.892733 21.064232 -31.720232 2.0
9.357275 18.164726 17.53475 0.0
3.097075 17.231113 -17.00345 2.0
-6.6982 -1.4211 42.31065 1.0
-3.48838 13.0709 15.47556 1.0
15.253737 19.573084 40.763248 0.0
14.474012 18.236675 33.799286 0.0
3.37859 11.724632 -23.254305 3.0
-5.406786 3.644193 32.382244 1.0
4.953659 17.374556 -4.77326 2.0
-10.659 6.114588 32.673756 1.0
-15.8172 -5.5738 46.362099 1.0
4.94414 11.28078 7.09736 1.0
-6.394637 5.473175 28.94495 1.0
-15.550977 4.403654 38.016537 1.0
4.135287 17.380541 -14.20055 2.0
3.61824 9.97131 -18.393555 3.0
16.8246 8.8527 -24.530899 3.0
13.441274 18.446758 32.409676 0.0
1.904717 18.796745 -5.774692 2.0
-18.798351 -7.953475 48.414703 1.0
14.633206 15.935946 32.006058 0.0
-1.674576 0.533898 33.422527 1.0
-5.967867 6.104917 27.553598 1.0
0.170201 18.004984 -8.92096 2.0
19.822369 2.723422 -18.392637 3.0
-0.2014 7.769125 22.5301 1.0
-4.084467 -1.681917 40.752422 1.0
-1.80371 15.605261 7.1342 1.0
-15.617055 -9.951872 50.235416 1.0
-12.593 4.657 35.851002 1.0
-0.807 14.8372 -1.91305 1.0
-14.235876 -6.768879 47.903316 1.0
-0.0246 15.3995 -9.1737 2.0
-12.06625 -5.644396 47.834431 1.0
7.6696 13.5266 17.937599 0.0
-11.7165 8.953134 30.743965 1.0
6.489519 16.592203 -28.570436 3.0
-11.423912 4.51495 34.898178 1.0
1.965946 8.946781 15.602922 1.0
-3.100675 10.5709 16.976587 1.0
-4.3165 1.3731 34.987198 1.0
-7.196207 -2.694062 44.970634 1.0
5.749585 18.762533 7.178114 0.0
3.968915 12.514177 -24.651012 3.0
9.449662 15.478713 15.455913 0.0
-0.056488 16.655144 -17.018932 2.0
2.275622 18.7626 -33.778637 3.0
-14.837182 -0.182426 41.157711 1.0
-2.620172 6.864348 24.779713 1.0
-0.594088 5.520083 27.495949 1.0
-0.165301 20.147985 -45.35265 2.0
-13.793364 -7.546958 49.216908 1.0
13.663784 15.229883 28.986284 0.0
-8.900608 9.66616 28.193645 1.0
-0.224906 5.047789 28.832979 1.0
-1.593332 11.604466 11.366185 1.0
-16.301832 -1.995351 42.781929 1.0
-20.805885 -19.381392 55.919277 1.0
1.936073 20.178133 -23.990648 2.0
16.8839 16.6824 39.308701 0.0
11.366034 13.43199 -25.402048 3.0
-0.32986 21.340441 -37.932358 2.0
11.316429 15.604256 21.604324 0.0
-2.537914 25.60676 -59.998741 2.0
-7.77808 2.632582 35.522274 1.0
-9.309161 -1.5353 42.877159 1.0
-15.7061 -6.6729 47.058601 1.0
17.376646 20.264305 45.700195 0.0
0.696 19.350399 -41.778664 2.0
1.476678 19.860933 -38.589699 2.0
-0.944467 22.026865 -43.306034 2.0
18.062153 5.173725 -20.775328 3.0
-16.982515 -18.031765 57.178516 1.0
9.240717 19.377752 29.899572 0.0
-1.210006 21.567461 -57.881794 2.0
17.60445 -0.13975 -7.90445 3.0
10.975465 14.889091 21.221273 0.0
-1.549284 22.177362 -62.156059 2.0
15.25661 11.475628 -25.280182 3.0
0.943163 13.427262 -28.898058 3.0
0.6174 21.6514 -42.0858 2.0
-1.688942 23.628307 -61.421425 2.0
-0.873475 22.529049 -59.405098 2.0
-5.320462 11.404675 21.925163 1.0
0.3633 19.311899 2.5644 2.0
15.886134 9.564279 -24.008659 3.0
-0.582906 15.566507 0.1939 1.0
-4.69944 13.48862 20.08868 1.0
2.963025 19.140499 -23.598076 2.0
-22.62146 -25.71015 59.674049 1.0
0.1324 18.785795 -2.240688 2.0
9.598675 19.25927 31.632278 0.0
11.789296 18.140356 25.753555 0.0
-2.640788 17.674963 9.958667 1.0
-1.223193 23.234119 -51.999161 2.0
0.98555 20.014975 -20.362274 2.0
21.413473 20.879963 53.028713 0.0
-3.120016 21.717854 -57.600143 2.0
14.879294 6.460341 -19.726648 3.0
21.519613 1.26809 -17.390814 3.0
10.01179 17.387541 18.03142 0.0
-6.169954 5.087439 30.204411 1.0
20.762062 -0.22735 -14.514494 3.0
15.36565 17.476 34.727051 0.0
3.010635 18.81097 8.580537 0.0
19.685133 19.542099 48.158348 0.0
-2.92745 22.58729 -53.0406 2.0
2.853875 18.7945 -32.826477 3.0
-1.61284 16.998671 6.418497 1.0
0.805467 13.157589 3.698017 1.0
2.959285 19.019522 -14.851768 2.0
21.243288 0.644398 -15.878669 3.0
-9.582343 8.244579 29.649908 1.0
-1.966205 23.366499 -55.145321 2.0
1.569138 20.391499 -30.305786 2.0
7.6934 15.4681 10.2062 0.0
-23.6887 -22.157499 58.453499 1.0
4.367945 18.977442 -2.979332 0.0
3.7176 8.9752 12.9181 1.0
-15.647872 -15.555695 56.196728 1.0
-3.8749 22.366001 -57.966202 2.0
-20.443521 -15.919263 53.728172 1.0
3.985515 10.329542 9.57791 1.0
2.00412 19.505829 -22.618343 2.0
10.744548 15.217956 20.093309 0.0
12.403184 6.909433 -19.722881 3.0
-6.143727 4.756385 30.945564 1.0
2.233357 11.660501 7.450263 1.0
14.92175 16.405899 35.875 0.0
-2.45315 20.8976 -53.084251 2.0
5.4245 11.698167 -23.043381 3.0
-20.562599 -24.972149 61.3965 1.0
-0.53655 16.4107 -11.68155 2.0
16.8144 18.0177 40.159348 0.0
20.065536 3.2563 -19.854574 3.0
16.310101 -0.0408 -9.67645 3.0
12.810915 2.636913 -12.406651 3.0
-0.819336 20.457787 -48.41782 2.0
0.772483 19.757418 -1.253392 2.0
-0.014867 16.891832 -7.716233 2.0
-0.880275 19.781351 -42.526924 2.0
12.0249 14.4475 27.3552 0.0
-1.183279 21.180864 -40.849216 2.0
13.846991 18.458767 33.354301 0.0
-20.803062 -14.189732 52.987385 1.0
5.411476 19.203289 11.766146 0.0
20.511864 1.323996 -16.596031 3.0
-1.28486 21.554115 -59.363556 2.0
2.001975 17.111107 -18.744926 2.0
-1.907 20.993 -41.9702 2.0
-0.037567 15.316433 -7.5257 2.0
8.639606 9.369407 -20.756117 3.0
-8.59724 -2.703991 45.222851 1.0
14.513003 17.355305 31.985723 0.0
16.739683 19.819166 47.097649 0.0
0.843137 19.470541 -15.2315 2.0
-16.636988 -9.602628 49.53133 1.0
18.483795 19.453579 45.294056 0.0
-5.867013 7.129565 26.731489 1.0
-2.196314 14.199692 9.97685 1.0
0.808962 14.592097 -2.683919 2.0
-9.597612 5.805902 32.392494 1.0
5.062741 14.889491 -27.798222 3.0
-2.27565 21.492874 -60.006248 2.0
-18.025206 -10.567256 49.980274 1.0
1.485545 13.568295 -28.136856 3.0
3.490736 19.231302 -6.120215 2.0
0.820554 11.468279 9.212951 1.0
12.437062 19.00882 34.502319 0.0
-22.180264 -27.442123 61.382893 1.0
-0.162679 12.91775 5.407112 1.0
4.2891 11.2096 8.017 1.0
8.497681 6.409382 -14.484764 3.0
-0.525238 19.852686 -30.943384 2.0
12.760148 6.40335 -19.183573 3.0
-5.448293 9.987999 22.905874 1.0
0.510883 20.912453 -33.384346 2.0
0.322025 18.724625 -9.3393 2.0
-2.203217 21.512768 -47.736168 2.0
-0.5943 22.4655 -58.439999 2.0
10.002423 12.414947 -24.681334 3.0
13.3012 9.058325 -22.053326 3.0
3.610008 9.482283 12.028538 1.0
-0.9242 19.90715 -43.961601 2.0
6.5769 17.9424 2.3688 0.0
-3.706475 6.665625 25.722174 1.0
-14.46745 -9.29645 50.840549 1.0
-11.006561 -0.258223 40.768707 1.0
-1.214405 4.76589 28.849064 1.0
1.4839 11.5299 -25.121601 3.0
4.663863 16.592522 -4.7205 2.0
6.128342 19.276001 13.387009 0.0
-13.160918 -8.236237 50.576912 1.0
-17.329817 -0.595113 41.944683 1.0
1.63155 20.392963 -8.292362 2.0
-17.057388 -14.11316 52.712376 1.0
-19.63945 -21.86355 60.386917 1.0
13.507237 2.014933 -10.656757 3.0
2.976465 19.335897 -5.383873 2.0
-22.570101 -16.300325 54.927574 1.0
-11.047 -8.4653 52.145802 1.0
6.825465 13.405625 14.176897 0.0
-13.18289 -9.003928 51.499039 1.0
-3.351111 21.834711 -59.991848 2.0
-0.9113 20.4869 -54.305698 2.0
1.5117 20.3097 -5.8527 2.0
-7.194416 -2.331452 44.199551 1.0
6.093556 15.556975 4.3253 0.0
6.212379 16.992725 2.214724 0.0
16.18705 20.386801 47.00935 0.0
19.441427 4.066073 -20.805429 3.0
18.388239 -0.875666 -11.407416 3.0
-19.013222 -11.777905 50.806416 1.0
-20.803553 -21.607508 57.567322 1.0
-0.828631 25.456402 -60.79715 2.0
4.371408 16.594181 -10.735888 2.0
-0.468831 19.07295 -27.156101 2.0
-0.834042 27.423882 -57.330498 2.0
2.2581 15.606067 -9.239883 2.0
-4.449642 0.14258 37.591053 1.0
18.079067 1.987049 -15.902742 3.0
-0.6608 19.868574 -33.955425 2.0
-0.2054 17.23505 -20.549925 2.0
-0.510661 10.411389 13.812551 1.0
6.436462 16.613129 3.341154 0.0
-0.09412 18.535221 -28.14566 2.0
-0.521373 16.9921 -15.225374 2.0
2.05327 19.434113 -30.001104 2.0
-11.711504 6.797706 32.77887 1.0
-15.228463 -6.068604 46.771118 1.0
7.270905 7.941884 -16.944914 3.0
-0.590767 15.218633 -4.701333 2.0
1.231197 20.145985 -40.412163 2.0
-19.77248 -4.472586 46.339664 1.0
12.756885 16.94595 25.657999 0.0
-7.4264 12.758151 26.150045 1.0
-1.65727 3.36392 30.605459 1.0
-0.248388 19.04863 4.37891 1.0
9.4116 17.215799 14.5374 0.0
3.000348 18.822056 4.72965 0.0
-2.337422 21.882574 -48.672302 2.0
0.6831 20.036699 -3.6777 2.0
-6.707133 13.170466 25.070801 1.0
-4.36483 15.591757 19.787281 1.0
-0.218506 21.819416 -39.747841 2.0
13.789295 7.203647 -20.124702 3.0
7.69612 8.03284 -17.688181 3.0
13.169392 19.278492 37.133533 0.0
9.613621 9.903707 -21.850227 3.0
1.204033 15.471416 -30.237183 3.0
-16.266153 -7.828355 48.133736 1.0
10.9886 19.0005 37.134998 0.0
10.986141 7.864471 -20.159397 3.0
8.982243 7.245847 -17.593191 3.0
-4.2054 14.08465 18.111851 1.0
15.7163 20.3032 46.151501 0.0
-0.820058 22.544634 -47.709831 2.0
16.622019 0.577031 -12.800507 3.0
-4.133414 10.261258 19.668943 1.0
-4.74555 -0.9723 40.383202 1.0
-10.020934 10.364973 28.945318 1.0
9.987154 19.020695 32.696167 0.0
-1.176867 13.397408 4.7151 1.0
9.85151 15.216747 17.006969 0.0
7.435094 16.194828 8.169592 0.0
-1.514311 9.35773 17.722691 1.0
-20.826311 -8.252054 48.720848 1.0
-0.159851 17.736372 -22.538458 2.0
13.774132 5.371738 -18.076231 3.0
-3.5992 17.5121 13.4829 1.0
17.296066 -0.7059 -9.747899 3.0
12.141169 4.153843 -14.825619 3.0
-4.346784 5.579167 27.918549 1.0
13.194616 17.695732 28.901091 0.0
13.80354 18.983423 35.519894 0.0
0.20569 18.80492 -30.933508 2.0
12.376359 19.046877 36.218365 0.0
9.607568 19.00305 22.993673 0.0
-4.17195 -2.21305 42.584999 1.0
-4.684688 2.010525 34.506973 1.0
-10.369001 -3.371921 45.627945 1.0
1.585029 13.169701 3.203804 1.0
5.207389 17.31872 -3.320572 0.0
-0.8292 19.58535 -40.846748 2.0
-0.484618 22.628752 -50.598217 2.0
7.5957 14.0035 13.7431 0.0
-11.361626 7.849995 31.624182 1.0
18.806133 21.182539 51.313026 0.0
-2.137 21.712175 -46.260525 2.0
5.6575 18.2148 0.1622 0.0
2.591441 18.809641 0.867384 0.0
12.424979 11.396802 -23.997259 3.0
-3.624958 8.974468 19.793886 1.0
-3.643207 2.931802 32.313805 1.0
-16.625563 -6.769661 47.043339 1.0
11.8165 15.178686 23.583586 0.0
-12.029245 -7.199453 50.195538 1.0
-0.469775 19.0448 -24.358051 2.0
17.028265 5.142183 -19.650188 3.0
3.015962 8.626038 16.640102 1.0
0.0246 18.131599 -14.9583 2.0
-13.789685 -4.455334 45.665161 1.0
13.812879 2.605608 -13.784781 3.0
-9.999288 2.595708 36.587097 1.0
7.063395 14.270511 10.035277 0.0
12.375938 9.218409 -21.900259 3.0
17.987968 2.935829 -17.030848 3.0
-1.923742 21.339342 -56.778435 2.0
-1.198822 8.605024 19.800335 1.0
4.26035 19.925018 16.60535 0.0
2.629849 18.623299 6.827601 0.0
21.766489 -0.313747 -14.560253 3.0
-4.284219 15.234103 19.042856 1.0
-13.160594 1.609482 39.00301 1.0
1.2039 21.428499 -34.557301 2.0
0.90368 16.27564 -12.81394 2.0
