# .PCD v0.7 - Point Cloud Data file format
VERSION 0.7
FIELDS x y z label
SIZE 4 4 4 4
TYPE F F F U
COUNT 1 1 1 1
WIDTH 1502
HEIGHT 1
VIEWPOINT 0 0 0 1 0 0 0
POINTS 1502
DATA ascii
-14.5495 -2.61215 28.175501 3.0
24.680901 9.15625 -6.5972 2.0
-38.065147 -10.1579 32.82935 3.0
28.2178 10.66875 -57.9874 1.0
48.840282 -5.730383 -39.350498 0.0
1.5902 4.50355 11.117 3.0
30.644299 13.31065 -83.872902 1.0
24.4508 9.031799 -24.351002 3.0
25.479218 12.436283 20.454752 2.0
10.07655 7.1356 1.1706 3.0
30.399 15.58915 42.226601 2.0
26.4872 6.22025 14.3918 2.0
30.9025 10.4953 -64.440247 1.0
27.43465 6.16685 20.766201 2.0
4.43815 6.47035 7.84015 3.0
30.903433 12.115483 -79.912231 1.0
27.5093 12.21365 -32.716099 1.0
-40.3489 -18.222851 37.594501 3.0
-38.48098 -13.25585 34.69936 3.0
26.204 11.18975 -13.106 2.0
-18.309368 1.693317 25.485367 3.0
30.07445 12.545401 31.084351 2.0
14.2365 4.80145 1.7536 3.0
30.6364 16.0891 43.676399 2.0
-29.894266 -6.942573 32.716633 3.0
31.9027 11.89523 40.536659 2.0
29.262751 11.4214 -39.537903 1.0
23.090799 11.95615 22.699034 2.0
28.0938 19.32745 45.932499 2.0
25.427399 10.58125 -11.5478 2.0
-35.04985 -7.8623 32.114349 3.0
25.88175 11.1682 -28.12215 1.0
35.506996 15.494906 54.500271 2.0
25.327965 12.149909 -23.651533 3.0
28.065432 14.836183 36.930801 2.0
29.724035 13.24295 -61.699268 1.0
-16.703983 0.068467 26.269302 3.0
16.459549 7.2482 -7.73635 3.0
31.7176 18.10235 -81.737297 1.0
-49.326035 -25.275217 38.282536 3.0
30.277241 10.312106 28.934341 2.0
3.31155 8.276649 9.067801 3.0
28.0275 11.45005 -66.405602 1.0
26.544399 10.0756 -36.46175 1.0
15.725451 4.11325 0.274525 3.0
-27.10375 -3.671117 30.338369 3.0
25.483379 7.69803 -22.315838 3.0
-39.696365 -16.866449 36.653534 3.0
-45.275921 -21.90723 38.046921 3.0
30.0401 7.31095 38.572899 2.0
37.648567 17.69775 61.937366 2.0
-33.889435 -13.105649 39.659698 3.0
30.554367 8.260183 33.547268 2.0
28.099949 9.13075 -20.768051 2.0
23.7019 8.8962 -22.686199 3.0
16.9697 8.476551 -11.24445 3.0
3.6818 0.67595 15.6495 3.0
29.108679 14.259069 -82.677658 1.0
30.502199 12.53655 -57.609901 1.0
29.69865 14.0892 -73.306602 1.0
31.068298 11.14855 -68.834045 1.0
39.676498 -2.9788 -37.851402 0.0
43.717804 -7.9192 -32.24395 0.0
33.434502 10.77195 46.6245 2.0
6.9996 9.03725 4.8833 3.0
35.383598 13.41625 55.610001 2.0
38.893566 23.656517 73.270531 2.0
15.6515 8.89275 -7.9669 3.0
-3.3125 6.32795 15.8814 3.0
25.8626 10.58465 -33.754501 1.0
23.172701 11.15395 16.749399 2.0
8.4555 12.00955 4.4124 3.0
4.7756 10.64545 7.9658 3.0
30.2714 13.5815 -72.155304 1.0
31.50145 14.46165 41.696899 2.0
28.3374 10.67875 -63.490303 1.0
25.413799 5.72415 22.304899 2.0
27.773499 10.73425 -16.2915 2.0
27.398199 10.97655 -10.167 2.0
26.298351 8.77825 -15.88195 2.0
29.689301 10.7517 -68.846901 1.0
45.505798 -6.239125 -35.924675 0.0
29.531633 6.296116 -53.960903 0.0
28.318501 12.312525 -78.428474 1.0
6.0637 3.81615 9.673801 3.0
38.230331 -0.16175 -41.501236 0.0
-11.4719 -5.6867 29.52005 3.0
40.091301 -5.4177 -32.27935 0.0
-2.2101 8.19705 14.7952 3.0
27.098967 14.951183 35.968567 2.0
-50.078197 -27.443949 39.706467 3.0
-48.6399 -26.181099 39.704948 3.0
30.764351 12.66975 -85.058601 1.0
25.501625 7.08585 8.476524 2.0
9.9895 11.55765 2.0122 3.0
30.837725 7.92185 36.229973 2.0
44.345074 0.782175 -44.668125 0.0
33.517399 13.304484 46.838566 2.0
25.291525 13.075675 25.077024 2.0
28.022232 9.156083 -2.482467 2.0
49.020069 -9.669816 -28.965134 0.0
28.2027 11.60385 -59.542099 1.0
29.8547 11.69875 28.62575 2.0
26.511299 11.8138 13.894751 2.0
22.824301 10.54705 -20.7423 3.0
42.518761 -6.67187 -33.863483 0.0
31.322361 16.67337 46.061501 2.0
6.1774 11.87315 6.6895 3.0
35.330948 21.3981 66.931549 2.0
-0.736 9.43925 13.1682 3.0
-33.09045 -12.17745 38.444351 3.0
27.835899 11.69955 -69.182297 1.0
33.209599 8.58995 -52.5522 0.0
14.700706 6.104433 -2.908361 3.0
20.186701 5.74865 -10.4442 3.0
-36.485565 -8.096084 31.945234 3.0
26.9009 14.156101 32.289322 2.0
33.117069 19.695984 58.161499 2.0
14.1572 4.20655 4.6912 3.0
13.9346 9.2942 -4.6519 3.0
30.637951 10.541451 31.716049 2.0
34.687061 8.53247 -51.307098 0.0
48.758701 -10.01795 -31.031401 0.0
28.1628 12.13585 -56.414501 1.0
33.808201 12.14835 47.574699 2.0
11.3647 12.28945 -0.15915 3.0
23.46295 11.5631 18.87755 2.0
-31.87085 -12.708549 40.658852 3.0
22.6544 9.95305 -22.843901 3.0
6.7253 0.55235 13.739599 3.0
-35.819401 -14.57795 41.444302 3.0
40.822399 23.830851 74.5849 2.0
28.567398 9.90495 10.319167 2.0
-42.857349 -20.84355 38.662102 3.0
25.30135 7.7501 0.39065 2.0
28.492201 13.175217 29.278166 2.0
36.1133 4.340916 -46.963436 0.0
48.488602 -4.33815 -41.849499 0.0
34.645901 18.074417 55.644867 2.0
17.662701 8.93405 -12.257 3.0
39.293659 22.510422 70.889557 2.0
15.942035 4.742816 -1.4595 3.0
39.230873 -0.9866 -40.957973 0.0
34.088669 15.474549 50.3172 2.0
-47.040298 -24.57655 41.0984 3.0
37.095673 -0.324177 -40.736423 0.0
31.232201 7.73485 40.8493 2.0
24.750099 10.02225 -4.7713 2.0
3.5045 -0.37965 17.7101 3.0
10.6674 10.68925 0.619467 3.0
27.336233 11.86365 -48.708698 1.0
29.8367 8.72535 24.9349 2.0
36.554001 19.771149 62.719002 2.0
27.751949 10.559799 -14.48405 2.0
11.5275 6.39585 -0.2845 3.0
29.817633 10.712116 -46.437698 1.0
38.692699 5.037884 -47.24577 0.0
28.6679 9.38505 -34.753899 1.0
28.975599 13.41685 -69.8508 1.0
29.263752 9.122775 20.52055 2.0
26.2225 11.58885 0.8211 2.0
29.7565 18.544649 47.801701 2.0
27.278801 11.80865 -40.149597 1.0
28.555302 9.66579 -27.262501 1.0
32.995098 10.71295 49.242001 2.0
42.794701 0.62845 -43.5895 0.0
28.750933 13.62405 -75.933495 1.0
25.5219 6.6866 12.8183 2.0
23.300949 8.5646 -20.85745 3.0
26.589102 10.709651 -38.179234 1.0
13.12175 7.1013 -4.45855 3.0
26.630699 10.44705 -45.210701 1.0
8.0616 4.14935 8.4542 3.0
41.154449 -5.682 -34.3186 0.0
-17.941166 -1.323717 27.764267 3.0
30.332851 10.105749 -53.090202 1.0
25.803699 10.97715 -8.5659 2.0
12.5903 12.72355 -1.9446 3.0
29.0853 12.321199 26.846199 2.0
21.545052 10.1336 -19.078449 3.0
30.921 13.04575 -70.828598 1.0
33.478832 6.761116 -50.9333 0.0
29.948126 8.92385 26.671326 2.0
29.23402 12.894391 -58.031898 1.0
29.7868 9.64205 -56.7827 1.0
31.5263 11.33845 -62.0131 1.0
33.149349 11.0399 -53.956902 0.0
31.100622 17.720869 48.39286 2.0
26.675001 8.0972 -8.28605 2.0
10.4802 5.65825 2.90945 3.0
30.455223 8.4908 31.680326 2.0
8.086467 4.70275 6.882866 3.0
31.036076 9.101749 35.670425 2.0
29.63205 14.435699 -81.518356 1.0
23.9039 8.58035 2.4197 2.0
44.161346 27.728451 83.694778 2.0
15.0268 4.04385 2.8017 3.0
14.1406 7.45775 -6.2146 3.0
26.90855 7.8761 -1.5135 2.0
37.060242 1.28615 -42.940102 0.0
-29.7624 -10.75145 40.555401 3.0
36.546299 8.19365 -49.992802 0.0
-19.51573 3.740279 24.385843 3.0
-46.858101 -21.826851 37.497501 3.0
33.147236 15.523701 47.897617 2.0
30.54355 10.49475 -63.093002 1.0
28.882576 16.4792 41.928875 2.0
24.639099 6.36075 15.8328 2.0
28.981899 12.71685 -47.2673 1.0
-1.569233 9.51365 14.254001 3.0
-38.1763 -16.66205 38.9114 3.0
31.854401 10.898109 39.720161 2.0
4.90145 0.3174 15.58105 3.0
33.129501 16.522751 49.4161 2.0
41.926334 25.482149 78.332565 2.0
31.131834 12.310451 37.621731 2.0
37.309875 16.700775 60.584175 2.0
2.09635 3.64065 12.9 3.0
27.653933 11.073417 -20.1542 2.0
28.709467 11.09965 -35.021435 1.0
36.625 9.88835 -51.297199 0.0
27.1369 6.64055 15.951 2.0
-31.63195 -11.734301 39.651749 3.0
28.723684 9.858433 -42.466702 1.0
29.74325 11.4216 -80.474899 1.0
5.2868 2.22175 12.33085 3.0
40.033401 20.493383 69.360435 2.0
28.7868 13.43015 -71.248299 1.0
36.485535 20.682684 64.719963 2.0
22.5485 11.93905 -18.605301 3.0
-29.288881 -5.110783 30.918335 3.0
28.688967 9.690749 -6.962233 2.0
30.100849 7.08409 34.060505 2.0
27.1029 17.08445 40.6987 2.0
-32.504734 -7.317428 32.105522 3.0
27.476452 8.30175 -27.170799 2.0
28.3519 10.31855 -21.617399 2.0
11.2579 7.71505 -1.095233 3.0
-34.264198 -8.975349 33.017151 3.0
-38.519325 -11.165975 33.432327 3.0
35.093433 18.884382 58.299938 2.0
25.120169 12.115967 18.025133 2.0
28.099686 10.882879 -24.068316 2.0
48.316402 -9.106116 -33.126163 0.0
25.317932 13.705516 28.623968 2.0
29.663 10.16485 -37.020599 1.0
28.723101 13.39865 -73.785797 1.0
8.514533 10.09145 3.464867 3.0
22.915371 9.685707 12.524343 2.0
44.559502 27.869749 85.984299 2.0
-28.83955 -1.8189 29.136101 3.0
31.004999 12.18385 -76.419403 1.0
31.512699 11.92455 -72.970398 1.0
21.8843 8.74885 -19.722633 3.0
1.2873 6.3288 11.54505 3.0
30.921299 11.656799 35.2696 2.0
35.272552 3.8121 -46.023701 0.0
26.803699 9.28685 -34.414001 1.0
18.571449 10.2837 -12.416651 3.0
-0.1547 3.87185 14.2018 3.0
3.5161 11.252075 8.86985 3.0
28.722351 10.2828 -31.01655 1.0
28.2271 11.95475 -61.616699 1.0
-9.703051 -4.31195 28.701775 3.0
23.028599 12.30195 25.101 2.0
43.275181 -5.54315 -35.713478 0.0
-0.3712 8.198749 12.8403 3.0
29.864552 15.916901 -84.05645 1.0
28.9772 10.19115 -51.076 1.0
30.614901 11.82445 -55.558601 1.0
25.6791 6.1481 17.083549 2.0
35.088799 16.51865 53.787201 2.0
19.360851 10.31925 -13.959351 3.0
29.70985 11.68195 -48.732151 1.0
1.6817 2.23185 15.2228 3.0
29.5762 12.23765 -52.094002 1.0
-27.3925 -9.94445 39.765499 3.0
11.864266 7.47545 -2.336567 3.0
6.9551 6.45405 4.6191 3.0
-16.452101 -3.092075 29.479074 3.0
30.27195 12.78495 32.912903 2.0
-30.522676 -10.118725 37.504898 3.0
-46.095901 -23.699051 41.230598 3.0
26.56955 11.2299 -22.250999 2.0
26.533951 11.180575 -5.87375 2.0
26.499977 14.496699 33.470226 2.0
28.287298 11.13871 15.677859 2.0
38.058758 17.697989 63.121361 2.0
32.609402 18.938749 54.536098 2.0
27.678774 12.0976 -51.279198 1.0
-20.8876 1.279 26.318951 3.0
32.11795 7.1958 -51.755951 0.0
29.638 12.30395 -53.6609 1.0
26.119675 11.105949 -30.526926 1.0
25.505098 8.706317 -24.908167 3.0
-36.850201 -15.51895 41.390701 3.0
16.3004 7.83075 -9.9497 3.0
-48.081898 -22.879318 37.636566 3.0
29.478251 6.540025 32.128151 2.0
29.908667 8.10575 -54.737232 0.0
23.7125 8.13705 11.356 2.0
22.477451 8.0752 -18.4305 3.0
28.061199 12.96875 -80.7584 1.0
30.853149 13.7312 -86.5345 1.0
27.652851 13.2346 28.09535 2.0
28.12845 12.3553 -53.878696 1.0
29.9566 4.09905 -50.05965 0.0
-35.315533 -13.545316 37.502666 3.0
32.310799 20.63345 62.427502 2.0
-4.7708 5.6603 17.266251 3.0
-1.71324 5.513471 14.43838 3.0
28.6581 10.32285 4.2775 2.0
35.2127 22.182949 69.0121 2.0
24.514702 11.05195 8.291851 2.0
28.263199 14.9163 -85.07695 1.0
19.5863 8.07725 -14.1943 3.0
28.4186 15.42715 39.117401 2.0
3.3305 1.97065 13.9478 3.0
27.64065 11.3028 -26.618999 1.0
16.796801 3.78615 -2.086 3.0
27.7234 18.900249 44.785198 2.0
41.106922 5.13569 -46.815781 0.0
30.757151 12.552299 -62.614651 1.0
28.028099 13.86345 31.849899 2.0
-1.5846 7.12165 14.224 3.0
18.981501 5.81815 -8.3508 3.0
29.854599 10.9126 -71.157455 1.0
12.7138 4.85655 3.63825 3.0
-33.996799 -11.00705 35.058201 3.0
26.958401 11.4626 -47.099197 1.0
9.087956 5.294735 4.659915 3.0
25.638399 10.15525 -32.569099 1.0
28.458057 9.700692 -19.54826 2.0
28.966833 9.526616 16.126867 2.0
43.448299 2.4489 -45.546051 0.0
32.885147 9.9504 45.529228 2.0
24.51515 14.61325 32.780151 2.0
0.510333 8.09305 11.722432 3.0
16.108349 8.7498 -9.09845 3.0
-42.873726 -15.525024 35.562378 3.0
47.12125 -2.8116 -43.428047 0.0
29.3964 10.99805 18.8955 2.0
26.4702 8.51585 -13.67495 2.0
43.307266 -2.245062 -40.282436 0.0
26.9839 12.15655 -27.801901 1.0
-36.613499 -15.12375 39.0896 3.0
23.5968 12.63335 -19.888201 3.0
-21.4991 2.30971 25.72612 3.0
22.898966 10.297366 14.296917 2.0
24.753201 7.70045 5.9367 2.0
29.939234 14.298783 -83.875534 1.0
-31.641899 -10.59905 37.470501 3.0
49.895851 -8.5252 -34.4561 0.0
27.679451 8.26815 2.78405 2.0
28.511034 12.300983 -49.933266 1.0
-40.308998 -11.37265 33.064201 3.0
-45.407398 -23.32445 40.016701 3.0
26.984501 5.60095 23.0506 2.0
46.114155 -9.43835 -30.692944 0.0
28.34115 9.33555 -16.504175 2.0
32.06855 15.89175 -83.281647 1.0
27.6271 10.66045 -11.8799 2.0
-28.6024 -9.83835 39.0322 3.0
36.7784 15.903816 58.673 2.0
29.892 10.14255 -42.584351 1.0
27.5882 8.06315 4.0683 2.0
27.764549 6.8342 17.887125 2.0
22.135201 5.18725 -13.7524 3.0
-6.326375 5.48755 18.528225 3.0
0.047167 5.931551 12.721034 3.0
27.951067 8.875684 -15.4574 2.0
31.822599 14.88115 -85.443199 1.0
38.7822 -3.01655 -36.841801 0.0
-7.902675 -2.943475 27.645424 3.0
27.7799 10.56795 -8.5499 2.0
-21.276199 -0.68765 28.0557 3.0
-39.10825 -14.77855 35.483749 3.0
34.701023 10.427429 -52.694202 0.0
8.9937 9.15235 2.5609 3.0
36.174969 14.69465 57.15213 2.0
31.135151 12.147949 -81.912949 1.0
-27.692001 -0.04465 28.752048 3.0
-43.878998 -19.67285 37.041649 3.0
28.57576 10.093111 -25.482519 2.0
36.227676 17.09935 57.490726 2.0
29.270851 11.561701 -81.988152 1.0
29.2281 9.7564 -39.565102 1.0
28.630699 12.04855 -41.4524 1.0
25.547199 7.19065 -0.6733 2.0
29.906349 13.09525 -64.489594 1.0
25.728951 13.361625 26.75765 2.0
30.4175 13.82465 -80.581596 1.0
37.323402 19.697151 63.6357 2.0
29.0501 10.45825 12.1354 2.0
40.854969 22.477716 72.920898 2.0
27.0583 8.15125 -4.09985 2.0
30.670399 12.9241 -68.299049 1.0
24.846201 6.02565 -18.5296 3.0
43.681538 -3.73515 -38.488499 0.0
30.909122 12.478975 -78.51532 1.0
28.532249 10.105949 -47.478001 1.0
26.572701 11.09555 -42.494701 1.0
-46.597301 -23.82295 38.928101 3.0
13.3643 8.08235 -3.8199 3.0
32.7062 10.17015 47.794998 2.0
16.890818 7.455349 -8.89275 3.0
28.346399 11.71265 -70.838806 1.0
24.727451 15.06705 34.728302 2.0
37.7043 3.28297 -45.444599 0.0
2.88286 10.303571 9.45872 3.0
37.302399 20.871017 65.856331 2.0
40.3256 5.8748 -47.343399 0.0
5.368 11.58665 7.5337 3.0
43.116467 26.897249 81.684303 2.0
26.867901 9.69715 -39.195202 1.0
38.891102 1.898683 -43.931469 0.0
29.300301 13.5185 -67.478401 1.0
14.5654 12.54295 -3.7327 3.0
-36.6269 -9.55455 32.830902 3.0
43.353699 -6.40385 -34.668701 0.0
-15.763634 3.858884 23.683533 3.0
21.623299 11.7472 -16.9174 3.0
39.668232 24.115318 74.623497 2.0
31.266899 9.890316 36.715969 2.0
28.569675 6.651775 24.505949 2.0
36.563652 18.098949 59.5345 2.0
-26.45104 -9.11865 38.451416 3.0
20.436899 8.49725 -17.6975 3.0
-30.106049 -9.454551 36.564148 3.0
37.354332 4.237984 -46.369598 0.0
28.146299 10.53175 7.8659 2.0
26.379101 11.71695 8.5979 2.0
-3.115133 2.912517 16.852301 3.0
32.153801 9.92995 -54.675999 0.0
31.1577 11.55785 -57.444302 1.0
30.814301 10.60755 32.884102 2.0
23.8911 9.81605 3.7368 2.0
29.652466 10.702049 -44.236004 1.0
27.2075 12.61485 -26.6887 1.0
-44.0033 -21.79805 38.799198 3.0
30.427299 11.29685 -83.218803 1.0
29.488245 17.085606 44.1077 2.0
30.9958 7.89965 37.9897 2.0
25.474566 11.514733 -25.900415 3.0
27.714775 11.086575 -22.49625 2.0
-23.562 -7.71835 36.5942 3.0
43.906441 -1.64745 -41.477722 0.0
31.927275 5.688275 -49.702625 0.0
8.97175 6.74125 2.78805 3.0
-13.3022 3.5373 22.96245 3.0
-41.228001 -13.82555 34.794399 3.0
34.525299 20.915251 65.184303 2.0
-35.288166 -12.470184 35.749466 3.0
27.957199 11.96565 -75.154297 1.0
34.6856 19.65295 60.032578 2.0
30.548 13.40935 36.943501 2.0
33.526703 18.215 54.105698 2.0
28.560301 9.72895 -14.2593 2.0
35.981068 16.311983 56.488331 2.0
27.9098 12.19725 -33.918499 1.0
30.1551 6.48185 -52.6954 0.0
30.052401 19.95805 53.8484 2.0
10.0543 8.30405 1.0662 3.0
25.620501 9.51145 -17.639299 2.0
43.27153 25.903885 80.879051 2.0
25.688126 7.6197 3.711825 2.0
28.719 9.19585 -38.497799 1.0
27.062099 10.62365 -50.0522 1.0
45.247299 -2.3545 -41.509048 0.0
1.832125 0.42845 17.945351 3.0
34.723751 5.24825 -48.369499 0.0
32.420502 17.65835 50.568199 2.0
27.263649 11.287649 -44.668701 1.0
30.952051 12.296201 -66.530106 1.0
5.9875 9.62155 6.3347 3.0
28.29332 7.65767 15.718701 2.0
24.263081 11.72267 -22.13966 3.0
-47.277599 -20.654099 37.291 3.0
29.802401 15.79805 -81.783699 1.0
23.709999 13.04075 26.874567 2.0
27.68055 12.8966 25.749649 2.0
28.316601 7.07565 20.485901 2.0
40.885899 21.024651 71.297104 2.0
-35.920666 -11.14725 34.121399 3.0
25.4769 9.254717 -13.516566 2.0
29.590401 7.46025 27.7558 2.0
-30.705759 -9.22359 35.488239 3.0
29.719799 17.559952 45.498398 2.0
28.5891 12.56555 -43.3386 1.0
30.5161 14.17245 39.110802 2.0
-19.526501 0.2332 26.8496 3.0
1.3291 11.46115 10.3838 3.0
-31.319967 -6.642933 31.754267 3.0
30.275999 13.4416 -69.470245 1.0
3.10665 3.062875 12.75225 3.0
22.9205 13.46715 28.8099 2.0
4.4902 9.517616 7.9326 3.0
25.2255 8.02105 -2.5711 2.0
31.057299 11.528717 -75.146103 1.0
30.1646 13.94995 -77.953003 1.0
25.2381 12.80685 23.0107 2.0
26.70365 8.9753 -19.83585 2.0
30.9667 20.334949 57.959301 2.0
27.9856 10.55915 -17.448601 2.0
43.354301 4.18805 -46.795399 0.0
41.906799 -6.716684 -31.143534 0.0
32.030602 16.523849 -81.062202 1.0
13.50805 5.254317 0.864667 3.0
28.6453 9.72365 -0.47755 2.0
28.505234 13.878417 -80.09893 1.0
-32.089218 -11.54257 38.501442 3.0
28.789101 12.88275 -63.3395 1.0
23.522568 10.475049 -23.481535 3.0
27.2819 11.49111 -18.67646 2.0
-33.308933 -11.24425 36.14333 3.0
-32.351875 -10.59275 36.347351 3.0
18.398899 6.89965 -9.5924 3.0
2.945 5.89705 9.8588 3.0
-31.89135 -9.889875 35.495773 3.0
26.8901 5.38025 24.30965 2.0
32.958099 20.276649 63.609501 2.0
27.7197 7.2376 13.70785 2.0
19.896099 11.89361 -13.69198 3.0
-20.848101 -2.00765 28.9851 3.0
24.4965 9.57555 -26.8759 3.0
30.084499 11.259649 -78.062752 1.0
6.073125 5.08775 7.682775 3.0
-32.532776 -9.6634 34.520077 3.0
31.725901 15.288017 44.089863 2.0
28.754749 9.44705 -36.024048 1.0
34.955532 14.630016 52.328465 2.0
27.612101 8.35575 0.1522 2.0
6.92175 4.0791 8.72945 3.0
-19.725075 -7.497025 35.267097 3.0
31.944633 12.296249 -55.7645 0.0
27.629551 12.0184 19.725451 2.0
28.726967 14.951917 38.116531 2.0
42.114601 -5.20195 -35.8461 0.0
40.298504 24.959549 76.751366 2.0
25.812401 11.54835 10.1954 2.0
24.804701 9.13095 -8.201899 2.0
38.9856 18.77865 67.798798 2.0
34.167099 20.192249 61.707699 2.0
27.511999 9.44005 -32.71286 1.0
24.1868 8.71905 -0.0825 2.0
41.553398 3.90865 -45.848 0.0
27.16506 8.28323 -5.91112 2.0
40.709366 25.507616 78.340431 2.0
24.5618 11.23285 10.003 2.0
28.71524 12.88093 -62.098999 1.0
21.073866 5.915983 -12.103665 3.0
1.6288 0.85885 16.8862 3.0
10.7015 6.347416 0.631033 3.0
28.518875 17.283251 42.713524 2.0
24.479351 7.92525 4.07105 2.0
29.317249 10.07825 -34.07185 1.0
-0.513633 3.31705 15.132266 3.0
23.4128 10.12485 10.9757 2.0
-38.389 -16.51795 37.799702 3.0
35.382999 -1.24735 -36.693401 0.0
8.311067 5.879284 3.7712 3.0
26.495367 11.440849 6.691801 2.0
34.693817 13.479282 51.707916 2.0
28.695499 11.60045 -86.588203 1.0
25.3526 10.20775 -15.5187 2.0
-26.013 -7.7176 36.205151 3.0
30.032999 8.110351 28.884233 2.0
28.6574 9.62865 -8.5409 2.0
39.1021 -1.54001 -39.951679 0.0
28.332701 12.18425 -39.112099 1.0
42.418499 5.44645 -47.126999 0.0
28.097586 9.723221 -40.517612 1.0
-17.8619 -0.47625 27.0117 3.0
29.1059 10.52545 13.3137 2.0
-17.665701 3.30213 24.361279 3.0
25.716549 10.4667 -19.136002 2.0
8.671801 7.9369 2.9463 3.0
-6.2798 -0.08049 22.88834 3.0
-5.10115 3.7064 17.8869 3.0
27.4356 11.28775 11.9282 2.0
-42.8522 -21.14435 40.668701 3.0
28.98105 6.85155 26.1255 2.0
25.7934 13.42125 -22.930401 3.0
-47.303936 -24.91221 39.869518 3.0
21.073351 11.899825 -15.775675 3.0
0.3311 4.19545 12.4613 3.0
-3.73905 1.83245 18.738499 3.0
28.431738 11.84387 -76.884537 1.0
25.0238 15.39145 36.784901 2.0
7.47805 1.88155 11.898649 3.0
42.129436 24.286869 77.446396 2.0
3.809 7.12245 8.6287 3.0
43.767899 26.06875 82.999802 2.0
-28.095287 -7.976781 35.505241 3.0
44.169998 27.27165 84.934303 2.0
3.5213 4.36715 11.1104 3.0
45.967701 -0.72915 -44.814999 0.0
-28.2411 -9.1283 37.437099 3.0
35.278767 9.519816 -51.714298 0.0
43.1548 -7.6128 -31.30475 0.0
26.345734 9.139584 -27.705566 1.0
-23.932949 -1.96315 29.144501 3.0
-23.0355 1.1575 27.0306 3.0
-35.478699 -5.98075 31.572001 3.0
41.224861 22.674009 74.19194 2.0
14.5137 8.89805 -5.5321 3.0
26.519135 11.324417 -24.445734 2.0
-30.361 -4.97455 30.6049 3.0
-16.925934 -1.83535 27.9228 3.0
26.828501 6.78185 12.0052 2.0
26.435801 11.17845 -20.7307 2.0
30.4681 2.12315 -44.2188 0.0
36.008499 19.43445 60.713299 2.0
-32.109047 -5.36295 30.811951 3.0
29.815599 10.49145 -65.198997 1.0
45.499287 -3.111993 -40.631947 0.0
22.2565 9.9182 -21.529949 3.0
24.7537 8.49175 -22.6248 3.0
-26.316774 -1.908062 29.361851 3.0
24.062849 11.500834 14.903049 2.0
28.098101 7.53405 -25.7572 2.0
26.8783 12.07795 16.339701 2.0
29.33215 10.3579 -62.722748 1.0
29.435999 10.679484 22.963366 2.0
4.4852 5.20185 8.0629 3.0
31.082132 19.842384 54.889553 2.0
-17.5109 5.05935 23.51375 3.0
29.723969 9.909416 24.493233 2.0
27.2813 16.111 39.157551 2.0
-0.8937 3.89535 13.3652 3.0
28.484501 9.62325 -28.457199 1.0
-50.509102 -27.25705 40.719101 3.0
31.1366 20.18515 56.840302 2.0
39.891823 22.878876 72.125526 2.0
27.7754 11.80425 -67.609901 1.0
27.813601 8.95395 -9.3308 2.0
35.10487 20.27915 62.859486 2.0
33.081249 20.390999 61.519501 2.0
15.3649 5.05785 -0.561 3.0
25.182501 6.28035 19.784599 2.0
-12.8731 -4.26495 28.873199 3.0
28.6635 15.32055 -86.463997 1.0
28.662535 10.068217 -5.888001 2.0
34.22934 12.91335 49.7285 2.0
30.90395 12.10075 -59.907051 1.0
-35.057301 -11.44285 34.811001 3.0
5.9497 5.55895 5.9979 3.0
30.093933 11.551049 -85.668297 1.0
30.0606 10.626949 -66.595749 1.0
29.966751 10.0784 26.83285 2.0
4.497434 4.890417 9.188399 3.0
33.241852 12.290475 45.100677 2.0
28.529621 11.939691 22.453541 2.0
27.1257 11.44585 -13.9602 2.0
27.91165 9.3367 -30.4296 1.0
25.167801 10.251101 -10.4932 2.0
28.9041 9.63385 -46.079601 1.0
26.3612 10.30325 -41.233799 1.0
30.647404 15.952951 -82.477699 1.0
27.365 9.9196 -44.426598 1.0
-4.478925 0.839775 21.131626 3.0
32.4268 8.6887 -53.7304 0.0
29.268633 10.91835 21.305666 2.0
47.670998 -8.37535 -34.103798 0.0
26.862499 11.42705 -0.0626 2.0
28.197001 13.40235 -77.916801 1.0
-23.217199 -9.23135 38.006699 3.0
30.305502 7.126816 35.683498 2.0
1.4021 4.30215 12.1995 3.0
24.5812 7.17525 11.4736 2.0
6.50942 3.10605 10.517321 3.0
29.46545 11.6202 -84.543152 1.0
16.7372 12.76525 -7.5117 3.0
7.6177 10.9487 5.47415 3.0
29.738899 9.50035 -48.020802 1.0
24.208799 6.50505 18.1633 2.0
33.625401 12.02715 -54.043301 0.0
25.892035 15.971416 37.873302 2.0
32.2761 15.8728 46.227551 2.0
-42.473972 -17.6917 36.215401 3.0
29.402599 8.16385 23.8839 2.0
21.314531 7.690667 -15.72705 3.0
33.293049 0.8804 -39.7743 0.0
-9.303101 4.71115 20.864151 3.0
-24.934601 0.6886 27.875826 3.0
27.7202 11.11345 -62.104 1.0
12.11085 5.50335 1.300425 3.0
36.305916 5.31756 -47.72113 0.0
28.804899 10.12295 -49.799999 1.0
42.101318 -3.24971 -38.727364 0.0
-39.124352 -17.70635 38.940575 3.0
38.159897 18.734751 63.64365 2.0
8.950168 11.09125 3.566433 3.0
38.3382 21.560049 68.145302 2.0
36.914669 2.082184 -43.90237 0.0
27.328501 12.76885 23.180099 2.0
18.923532 9.327951 -14.442634 3.0
28.152599 5.8349 26.654301 2.0
28.532766 9.725951 -23.313133 2.0
37.476601 22.334749 69.406601 2.0
29.245201 11.774 23.5867 2.0
29.9055 14.119101 -79.116104 1.0
28.203501 11.05545 13.9985 2.0
19.4638 7.28185 -11.9638 3.0
29.032801 11.43285 -40.605598 1.0
23.196899 9.62025 9.4096 2.0
28.701725 11.16375 17.276875 2.0
32.917599 6.05155 -49.391499 0.0
28.0462 10.24625 -10.6552 2.0
25.5753 11.00475 -3.5428 2.0
44.100681 -0.86457 -42.63958 0.0
28.506001 10.40245 6.4816 2.0
2.2201 7.21955 10.4045 3.0
11.87265 5.23685 2.4337 3.0
23.467499 9.27845 7.54145 2.0
30.713249 10.26005 -60.73875 1.0
34.6646 21.710051 67.734299 2.0
28.547001 12.63085 -55.0271 1.0
-9.73965 0.9507 21.947701 3.0
9.9964 4.62985 6.5424 3.0
-36.920238 -11.67865 34.16428 3.0
-19.7493 -8.40655 36.029701 3.0
33.7108 10.26799 -53.115715 0.0
-40.679142 -12.88871 34.267998 3.0
34.223 1.40835 -41.983398 0.0
29.7826 10.26285 -41.495602 1.0
28.14465 12.11425 -80.091354 1.0
-20.146299 -3.98525 31.4632 3.0
47.105366 -9.878327 -30.2743 0.0
-8.086501 -0.476117 24.137232 3.0
-5.6374 2.59935 18.863701 3.0
23.49334 12.32913 23.676418 2.0
28.563601 12.61945 -52.030899 1.0
-31.1415 -8.38535 33.787899 3.0
29.670134 19.252817 49.689697 2.0
33.630299 0.38585 -37.981701 0.0
38.676983 0.285083 -42.509964 0.0
38.819759 19.094629 65.86792 2.0
-30.628 -11.13375 39.454899 3.0
37.66935 16.7118 63.505249 2.0
-34.956497 -9.73905 33.376499 3.0
31.093039 8.06071 -53.515381 0.0
-11.8862 0.29875 24.2493 3.0
-2.67845 -0.26505 24.4298 3.0
-46.056549 -19.297199 36.874851 3.0
28.8582 9.8462 -57.700451 1.0
31.461449 11.28985 38.390099 2.0
28.8344 9.44925 14.3961 2.0
27.135456 11.100849 -4.733422 2.0
24.715 12.48415 21.305351 2.0
48.104 -9.62605 -31.828501 0.0
28.5839 11.09485 -72.896896 1.0
30.87565 9.921101 -58.647598 1.0
24.371099 10.03355 -0.3079 2.0
27.5093 7.94505 -10.3658 2.0
15.9829 11.23135 -6.7705 3.0
29.031935 15.625984 40.1745 2.0
26.487566 11.250717 1.8764 2.0
10.1797 6.28775 2.088 3.0
25.424601 10.98435 -27.101101 3.0
-32.476601 -3.66785 30.069 3.0
34.925701 1.75285 -43.065533 0.0
-14.285741 -3.68421 28.959681 3.0
30.223499 19.41185 51.492599 2.0
24.0168 10.99275 11.179 2.0
-6.0316 1.17675 20.700834 3.0
38.147148 17.669201 65.367798 2.0
30.553635 12.950717 -65.519897 1.0
-0.692029 7.277421 13.293501 3.0
39.387402 0.99505 -43.2145 0.0
-33.533775 -5.9594 31.239525 3.0
-21.952301 -6.92945 35.675251 3.0
30.499901 11.98415 -56.649101 1.0
11.918667 10.486217 -1.154667 3.0
-4.84375 1.7826 19.268051 3.0
-14.537149 -7.33165 31.52655 3.0
26.7889 11.37805 -32.656898 1.0
24.485643 13.951384 29.906755 2.0
30.712999 9.57175 -56.044998 0.0
12.74485 11.66525 -1.8818 3.0
-3.4838 4.07615 16.3867 3.0
50.691059 -8.330221 -35.145557 0.0
-29.489 -8.14895 34.848499 3.0
-4.68285 4.4905 17.168549 3.0
28.110832 9.347283 -24.829233 2.0
40.706013 -0.139067 -42.133884 0.0
28.320774 6.6679 22.886848 2.0
-39.415001 -18.11245 39.996201 3.0
-9.49975 2.914225 21.307526 3.0
41.535 22.79665 76.357597 2.0
-44.341751 -22.440149 40.119751 3.0
-33.512001 -10.15625 34.5089 3.0
30.549374 12.0715 33.692924 2.0
-22.088326 -2.883675 30.05435 3.0
45.5341 -4.21895 -39.004799 0.0
35.433701 18.281349 57.425499 2.0
28.3298 10.16695 -60.887901 1.0
29.291601 11.907983 -46.457932 1.0
15.76 12.60975 -5.6368 3.0
26.442699 17.82925 41.323601 2.0
-41.927101 -19.92255 38.480999 3.0
-7.88265 4.94075 19.78735 3.0
25.979401 9.33375 -21.871901 2.0
24.798401 13.26675 -21.507299 3.0
-29.289925 -7.44165 33.670349 3.0
30.306299 11.50725 31.114422 2.0
-38.248398 -15.1749 36.04425 3.0
-7.6372 3.86145 19.495199 3.0
40.505245 -4.324239 -36.061993 0.0
21.92375 8.9813 -20.939098 3.0
28.086298 10.300983 0.9015 2.0
-11.1079 -4.9336 28.865799 3.0
2.2364 4.72015 10.07 3.0
35.31855 20.701401 64.478546 2.0
-8.1657 1.60355 20.8636 3.0
6.52165 2.3167 11.7513 3.0
-41.432598 -19.94795 40.594501 3.0
-38.647999 -9.63605 32.113201 3.0
9.93725 10.32285 1.6262 3.0
-10.523625 0.8583 22.709101 3.0
28.1427 10.64905 9.49405 2.0
42.115856 2.09415 -44.747955 0.0
31.856998 8.6952 41.340149 2.0
40.247353 -1.0753 -41.460899 0.0
28.343451 12.4701 -76.036301 1.0
15.1829 10.20805 -6.2852 3.0
27.107765 6.300517 18.872232 2.0
45.6436 28.351351 85.615799 2.0
-15.8672 -0.84385 26.500399 3.0
11.019 6.69225 -1.2139 3.0
8.2501 3.13685 10.1337 3.0
30.902727 9.007675 -55.160851 0.0
23.541666 6.503383 -17.053734 3.0
-8.574799 6.77145 20.623501 3.0
29.063549 12.03145 -27.7365 1.0
36.068001 22.68095 70.841698 2.0
-20.717701 3.2768 24.863476 3.0
22.175699 11.01455 -19.0312 3.0
29.2244 8.07295 -27.531601 2.0
-21.612801 0.70495 27.0592 3.0
26.890932 7.72885 2.119367 2.0
27.2658 8.03105 -13.1839 2.0
29.177435 6.43565 29.837601 2.0
11.312 11.14935 -0.2209 3.0
27.8512 9.93615 -49.375549 1.0
17.113733 10.08695 -9.773433 3.0
49.439701 -5.70125 -40.213902 0.0
-2.5217 3.81005 15.0131 3.0
6.5582 7.57335 5.6244 3.0
33.648666 17.051783 51.652531 2.0
27.832901 18.051201 42.968201 2.0
40.386002 -2.80745 -38.607498 0.0
28.246099 16.52025 40.9935 2.0
36.244949 1.02265 -42.333401 0.0
35.157501 -1.85305 -35.301598 0.0
42.521702 24.268551 79.421501 2.0
24.7554 10.37605 -2.3795 2.0
-28.299402 -3.65901 30.167599 3.0
20.33765 10.0431 -16.289801 3.0
-26.112566 -6.51155 34.253967 3.0
27.791901 10.55905 2.0761 2.0
26.760099 10.58515 -46.248001 1.0
7.85765 9.70995 4.31495 3.0
37.120068 -0.848517 -39.724968 0.0
29.087025 10.293076 -52.537651 1.0
-12.299725 3.4926 22.667126 3.0
31.103815 11.292133 36.232716 2.0
31.721365 17.058683 47.87323 2.0
30.767599 3.41815 -47.026798 0.0
26.257532 13.014183 24.681435 2.0
-10.12635 -1.6177 25.7687 3.0
32.2225 14.06515 43.496769 2.0
-44.964897 -20.578449 37.306801 3.0
27.866461 8.88117 -3.47794 2.0
39.633598 4.06725 -46.211601 0.0
41.849953 26.305401 79.7314 2.0
32.127098 18.501516 52.453735 2.0
-3.1382 0.0486 22.5776 3.0
31.2341 11.93355 -80.885399 1.0
30.69426 13.34561 -74.676598 1.0
29.683149 10.236 -61.562599 1.0
-16.0557 0.58255 25.633301 3.0
14.1057 10.39595 -4.4067 3.0
26.31555 5.7226 20.6535 2.0
27.673965 9.641316 -37.059601 1.0
25.2826 7.0321 -20.293449 3.0
0.54705 9.944201 11.562 3.0
-17.4818 -4.84055 31.554899 3.0
-43.904701 -21.93305 41.023399 3.0
-34.710003 -12.696449 36.701267 3.0
25.409599 9.78715 -29.6229 1.0
32.429501 12.479317 42.820267 2.0
28.920099 13.06255 -65.9711 1.0
25.0541 10.75225 -0.6412 2.0
-14.691817 -0.912583 26.320501 3.0
30.63925 15.0353 41.338501 2.0
26.753599 13.51315 26.860701 2.0
30.150499 3.425883 -47.915897 0.0
31.629299 4.74445 -48.6007 0.0
25.926651 9.49185 -20.753101 2.0
17.969801 10.84975 -10.7875 3.0
-41.302982 -18.67935 37.313885 3.0
31.5319 9.58295 37.766102 2.0
26.1716 10.93625 -35.9701 1.0
24.664833 10.707717 3.054 2.0
-25.5832 -8.08865 37.2393 3.0
27.6306 12.00265 -41.147499 1.0
29.447876 8.534574 22.878174 2.0
28.847601 10.02445 -18.561399 2.0
24.882299 8.45885 -3.7468 2.0
24.650299 10.65355 1.5601 2.0
22.112301 10.44055 17.556 2.0
50.114853 -9.694599 -32.153999 0.0
44.987499 -0.01505 -44.494301 0.0
27.846401 11.8639 -28.317699 1.0
-13.745801 4.50835 22.8479 3.0
-48.47337 -24.676582 38.2673 3.0
19.437599 8.906699 -15.9646 3.0
35.50808 -0.13927 -39.47868 0.0
29.481079 10.668429 -67.511421 1.0
25.495264 11.241051 5.075833 2.0
25.865366 11.669884 11.740067 2.0
30.15 9.77225 27.805401 2.0
38.289566 5.89515 -47.900631 0.0
-19.280899 2.2842 25.449551 3.0
45.507198 -4.97455 -37.725601 0.0
49.096508 -10.333917 -30.059816 0.0
12.725451 6.15435 -0.7662 3.0
39.329674 20.102535 67.757401 2.0
25.289299 9.2407 -12.10205 2.0
24.569901 11.41735 11.9967 2.0
32.722866 16.374983 48.304836 2.0
29.4848 12.04285 -49.698799 1.0
31.89695 3.097425 -45.279526 0.0
25.518482 8.71967 -10.3006 2.0
33.849098 7.949099 -51.467148 0.0
29.906422 7.28545 31.502697 2.0
27.303452 7.4607 7.31745 2.0
25.3004 6.929517 10.558099 2.0
29.428801 10.86785 -37.738701 1.0
-18.70686 -7.52115 34.655663 3.0
26.46755 10.72 -34.5793 1.0
28.8046 12.60135 -45.238899 1.0
5.49825 8.0994 6.66095 3.0
26.915733 11.285884 -16.4562 2.0
30.161049 5.71935 -51.839203 0.0
34.132248 6.5484 -50.16605 0.0
46.379398 -8.00535 -33.6101 0.0
27.3799 11.05795 -54.966999 1.0
29.5282 10.88875 -43.192902 1.0
-22.537001 2.25365 25.981001 3.0
35.519302 8.04325 -50.470669 0.0
27.9561 11.81665 -37.4828 1.0
42.90295 3.535 -46.14135 0.0
-10.445 3.13885 21.7575 3.0
31.344601 17.400049 -82.388397 1.0
23.075424 11.136524 17.91185 2.0
-27.930099 -1.34465 29.07305 3.0
18.3503 12.97655 -10.7023 3.0
-13.1932 -5.99045 30.079201 3.0
24.228001 6.93175 14.5586 2.0
23.479099 13.94385 31.100101 2.0
0.715425 2.317775 15.55585 3.0
32.852402 13.267182 44.502468 2.0
24.9869 11.97525 17.018 2.0
-20.334833 -6.534784 34.743267 3.0
27.064798 11.234016 5.278734 2.0
-11.53365 6.11945 22.01265 3.0
37.710098 23.26355 71.466599 2.0
28.148001 9.10025 2.4113 2.0
39.686359 -4.23715 -35.451599 0.0
35.1763 14.50855 53.322052 2.0
-4.327166 -0.646117 25.528633 3.0
29.710699 11.287717 -76.688301 1.0
29.3591 9.37555 -44.796101 1.0
28.1984 8.393951 -27.8922 2.0
31.098101 14.59685 -84.773598 1.0
29.243401 19.465151 48.097198 2.0
42.215302 23.755251 78.379097 2.0
11.2951 4.8261 4.5882 3.0
28.924101 10.74875 -29.491501 1.0
26.893999 8.557225 -15.08045 2.0
29.138248 13.11615 31.299049 2.0
45.510376 -1.481862 -43.102222 0.0
-44.66135 -18.0439 36.429501 3.0
-30.447449 -3.2964 29.61195 3.0
25.52545 14.1471 30.929001 2.0
27.542933 6.056583 22.279299 2.0
29.7822 14.22465 -75.759102 1.0
-14.7222 6.33055 22.557575 3.0
8.0686 5.1778 5.77665 3.0
-19.548201 4.79485 23.8948 3.0
49.295204 -7.28895 -36.284901 0.0
6.8593 5.68485 5.3976 3.0
26.995199 12.78855 -24.5777 3.0
25.261 10.87275 -1.6467 2.0
28.904999 10.45945 -56.044849 1.0
26.738899 7.93925 -25.060801 2.0
-35.881359 -10.30571 33.525898 3.0
27.601601 8.34545 -17.606899 2.0
-30.5604 -8.71725 34.596699 3.0
-33.530766 -7.03605 31.794601 3.0
25.895699 5.95115 18.468765 2.0
46.722733 -5.620917 -37.816532 0.0
-22.87215 -8.22595 37.166298 3.0
28.829865 7.50935 22.049368 2.0
0.262275 1.684025 16.85755 3.0
28.5222 8.954351 5.8467 2.0
-13.940467 2.91705 23.564699 3.0
-8.879 -0.117 23.42635 3.0
4.33372 1.73435 13.563021 3.0
-23.875135 -3.654683 30.6912 3.0
27.915051 10.3585 -2.28995 2.0
28.286499 9.32105 4.63945 2.0
-17.332399 -6.14515 32.8004 3.0
32.10075 9.6823 41.1488 2.0
-12.89064 -2.69999 27.715582 3.0
28.4081 9.13865 8.107 2.0
-25.142601 -9.46775 38.879402 3.0
-20.512869 -3.321683 30.479368 3.0
30.552101 14.89465 -82.325394 1.0
-6.22125 6.73 18.696301 3.0
28.133801 9.99545 -53.184502 1.0
22.9993 9.28725 10.3464 2.0
28.52935 11.071899 -68.758652 1.0
30.45775 10.08555 29.905125 2.0
27.7598 13.58625 -86.2724 1.0
-29.143402 -9.1117 36.737751 3.0
-6.5124 -0.75325 24.906799 3.0
6.532825 10.937824 6.516475 3.0
-18.52026 -5.96857 33.162376 3.0
28.3358 10.56355 -54.1721 1.0
28.589899 12.19875 24.491899 2.0
-20.13238 -0.49049 27.518219 3.0
34.0368 18.746651 56.2971 2.0
27.613001 11.13565 -58.648701 1.0
-36.931175 -14.03125 35.946899 3.0
24.045 10.58565 7.5294 2.0
44.510258 -7.912792 -29.286957 0.0
4.49585 2.895733 12.083283 3.0
18.733299 7.880983 -12.536466 3.0
30.920601 11.82535 -58.416901 1.0
-7.7179 8.49455 20.6273 3.0
27.87175 9.69755 -38.283249 1.0
27.081299 10.25507 -42.719299 1.0
42.867149 -6.95065 -29.3447 0.0
-8.4249 -1.9602 26.510401 3.0
26.305302 13.6812 29.11705 2.0
28.369301 12.18795 -85.522903 1.0
9.6088 9.10105 1.7656 3.0
-12.280171 5.324851 22.244272 3.0
26.142267 7.336017 -2.935567 2.0
-21.314402 -6.34687 34.875057 3.0
29.888142 14.290751 38.095341 2.0
35.107887 0.643025 -40.936726 0.0
31.431049 6.5586 -51.253551 0.0
34.900627 12.717793 53.560356 2.0
25.0989 7.118117 9.539867 2.0
29.488501 13.29015 33.491299 2.0
28.888769 11.429916 19.824934 2.0
28.697941 13.68709 -76.943932 1.0
31.7498 1.06005 -40.7934 0.0
-14.5161 1.316375 24.688301 3.0
-9.6963 -1.052 25.05875 3.0
30.214199 10.31905 -47.576801 1.0
17.4244 12.11725 -9.126699 3.0
26.1311 10.17015 -37.371799 1.0
12.699724 6.920225 -2.296325 3.0
26.679399 9.52625 -35.55825 1.0
29.566566 8.105134 25.676414 2.0
-23.493099 -4.58265 32.217899 3.0
21.0557 13.11505 -15.2053 3.0
26.6544 6.68385 10.4686 2.0
27.954834 13.238149 -82.339264 1.0
-33.118263 -8.70045 33.096363 3.0
22.1273 7.5088 -16.644951 3.0
28.695599 10.721849 -65.162598 1.0
26.93445 8.7815 -18.814751 2.0
31.719101 10.50225 -55.706299 0.0
24.914125 7.497312 -21.101236 3.0
46.920124 -3.078273 -42.325485 0.0
-10.921399 -2.730583 27.285501 3.0
25.668674 11.462725 7.93865 2.0
-4.8507 9.50885 18.344049 3.0
39.902699 19.52585 69.584801 2.0
29.0389 11.80425 -42.868099 1.0
18.7209 11.19415 -12.0278 3.0
28.0009 8.760549 -13.3949 2.0
-29.996099 -10.11945 38.356201 3.0
25.498541 11.310829 6.07902 2.0
-3.2892 0.8895 20.31035 3.0
29.8342 15.01445 39.9464 2.0
29.5399 9.99575 -59.177902 1.0
-5.45485 -0.4687 23.83885 3.0
26.046301 7.45605 -23.1061 3.0
27.274151 6.5564 17.061901 2.0
-4.123867 6.102917 16.647034 3.0
25.521694 10.870522 -5.310187 2.0
27.3883 11.68675 -53.9296 1.0
44.693253 -8.340224 -32.427052 0.0
28.555599 13.71895 32.9342 2.0
-35.258202 -13.85595 38.737999 3.0
29.102301 8.82635 -56.175301 1.0
26.1297 7.3874 5.30705 2.0
18.3388 4.08165 -5.4174 3.0
26.3319 11.23615 -17.285601 2.0
30.426399 17.249817 46.130035 2.0
27.722366 5.662384 24.891466 2.0
-10.7592 2.42445 22.378 3.0
30.74465 10.9226 -72.94635 1.0
28.27445 11.52555 -32.896751 1.0
26.32 6.82495 -22.071699 2.0
42.287968 -2.501207 -39.735085 0.0
-45.895802 -22.506149 41.1189 3.0
34.552647 12.506968 51.873081 2.0
-24.840649 -6.13005 34.480049 3.0
25.581551 10.4105 -17.03495 2.0
-8.9663 1.86045 21.4118 3.0
-36.734901 -15.00415 37.985298 3.0
27.46785 8.51985 -6.89245 2.0
33.382801 17.86935 53.011299 2.0
-18.892275 -5.109275 32.680851 3.0
-5.49625 7.4992 18.3449 3.0
-4.28045 8.9073 17.701302 3.0
22.057501 13.32715 -16.8239 3.0
-10.6116 5.98105 21.6416 3.0
33.484177 5.543175 -48.6297 0.0
-14.723485 4.682093 23.102686 3.0
29.4639 6.16655 34.583 2.0
37.9538 1.58265 -44.033199 0.0
-16.516451 5.68075 23.1283 3.0
47.476753 -9.5218 -29.3134 0.0
30.9965 11.04035 -67.278297 1.0
34.2132 19.275551 57.988998 2.0
24.876366 13.229584 26.265234 2.0
12.234301 9.310801 -2.0946 3.0
24.3592 10.83405 -24.150801 3.0
-38.1255 -16.80645 40.697701 3.0
31.836601 9.9056 39.74765 2.0
24.2535 8.66845 -1.675 2.0
34.539749 16.312302 52.467003 2.0
-2.5386 10.24625 15.8014 3.0
43.902225 -4.716662 -37.268036 0.0
23.782499 8.22795 10.0035 2.0
29.7605 13.11575 -59.365501 1.0
-22.605 -0.88405 28.3972 3.0
26.350901 9.32965 -23.7425 2.0
24.5516 6.98865 -19.446899 3.0
30.94935 2.80705 -45.259949 0.0
-14.938233 0.66325 25.416399 3.0
30.0382 11.66045 -52.833599 1.0
-6.2521 8.68745 19.55555 3.0
32.113338 20.34425 60.028503 2.0
-21.875299 -2.27251 29.304358 3.0
-36.064102 -14.1625 37.302551 3.0
24.9615 7.81315 1.41095 2.0
-9.33825 8.3098 21.386101 3.0
23.6105 8.10185 6.6044 2.0
28.53754 7.87349 17.252079 2.0
47.114151 -9.0349 -32.22995 0.0
-17.813 2.37635 24.968599 3.0
-10.66265 -4.07335 28.4613 3.0
-21.836449 -4.84585 32.87085 3.0
27.5149 11.1145 10.5043 2.0
-11.28125 7.888 21.918699 3.0
-13.532614 6.270379 22.468899 3.0
28.7549 8.793549 12.389 2.0
-21.892332 -5.91705 34.128452 3.0
23.0275 10.3208 13.273849 2.0
19.054001 4.82375 -6.95485 3.0
33.92395 13.93825 48.616096 2.0
31.429701 11.59745 -71.691498 1.0
28.067133 10.293918 -3.908733 2.0
25.707556 15.295308 36.057384 2.0
-25.987101 0.64495 28.280899 3.0
1.332833 3.139317 13.973633 3.0
-21.482065 -7.673283 36.150265 3.0
10.0151 4.80075 5.4881 3.0
38.6376 -1.98135 -38.834301 0.0
-10.314312 -0.499875 24.507763 3.0
30.871979 12.29659 -84.151199 1.0
5.280767 3.538983 10.574634 3.0
30.347433 8.632417 30.318933 2.0
-23.12245 -4.14615 31.349201 3.0
31.599899 9.02685 44.1675 2.0
31.2493 11.08315 -65.392403 1.0
42.270821 -0.75203 -41.766762 0.0
-45.6684 -23.160683 39.080166 3.0
27.0161 11.42895 -12.601 2.0
-1.27948 -0.06825 23.324238 3.0
28.0201 5.59485 27.687799 2.0
27.292168 11.038634 -6.486767 2.0
33.502411 3.04795 -44.939392 0.0
27.486576 8.464525 -11.4777 2.0
-27.271219 -8.11479 36.288258 3.0
-40.526539 -16.71245 36.145943 3.0
26.508699 16.871216 39.899765 2.0
26.496651 11.10375 -40.50275 1.0
26.216101 8.44865 -25.739201 2.0
30.5049 4.26935 -49.085953 0.0
28.1481 12.46685 -48.429699 1.0
27.711201 9.48275 -34.087624 1.0
25.4382 10.7299 -6.9331 2.0
39.287201 7.4867 -48.467552 0.0
-25.872999 -1.01065 29.0872 3.0
34.117401 11.892184 50.302998 2.0
24.299999 12.05375 18.722555 2.0
23.901649 13.346766 27.935102 2.0
-2.492583 -0.027983 23.454466 3.0
48.526501 -7.80125 -35.604198 0.0
-11.8173 0.90985 23.483601 3.0
-11.2993 -0.40785 24.5963 3.0
-6.1218 4.53555 18.406099 3.0
32.32283 10.29795 42.261631 2.0
36.606148 16.874901 58.42445 2.0
-11.8399 2.48415 22.747051 3.0
-15.975275 -5.920625 31.6898 3.0
32.105465 1.761617 -41.942799 0.0
-3.898116 -0.4839 24.478983 3.0
-9.347549 -3.41515 27.782249 3.0
-6.72478 -2.11895 27.0896 3.0
31.7472 17.543652 -80.933548 1.0
27.748301 12.10075 -45.231499 1.0
-16.393101 1.73295 24.9881 3.0
-28.135267 -7.074783 33.747902 3.0
32.7724 10.6819 44.0415 2.0
29.118099 13.02555 -54.069 1.0
26.8687 10.71505 -47.810101 1.0
25.320801 16.703051 39.266602 2.0
40.505001 -2.256483 -39.616955 0.0
28.894922 13.65793 -74.95256 1.0
-7.0987 1.9285 19.9639 3.0
16.8041 5.21715 -3.3807 3.0
30.73735 13.0963 -82.857254 1.0
27.24205 11.76495 -31.881699 1.0
27.3507 11.68455 -42.437801 1.0
27.7509 5.78995 29.5693 2.0
20.757734 9.503783 -18.926168 3.0
-39.313698 -12.851151 34.369797 3.0
36.930748 -2.4027 -35.820148 0.0
25.509201 11.144417 3.276867 2.0
2.63175 4.7674 11.07995 3.0
13.347267 9.057484 -3.851267 3.0
27.948299 10.54755 5.2671 2.0
30.45015 11.6464 -54.613899 1.0
-4.91382 0.23764 22.07835 3.0
36.832352 -1.9493 -36.690102 0.0
29.49 11.8522 25.06485 2.0
30.055855 10.713629 -49.461582 1.0
-0.9618 1.44175 18.283701 3.0
36.794498 9.05795 -50.5839 0.0
28.625099 5.713 31.29565 2.0
-11.0434 -1.4949 26.071049 3.0
29.198299 9.88655 19.411699 2.0
31.256201 15.35935 -83.329803 1.0
-19.114439 -1.32495 28.102139 3.0
-1.1108 0.123383 22.278999 3.0
21.5492 6.94415 -14.8138 3.0
-22.916248 -5.7492 34.2188 3.0
26.693499 12.273 -25.930225 3.0
24.388201 10.63635 -25.427999 3.0
22.121 10.96675 19.398701 2.0
28.2598 11.99775 -60.425499 1.0
-47.3521 -24.50355 38.970901 3.0
26.366699 11.40215 -29.516199 1.0
-41.654549 -16.838749 35.9151 3.0
-25.133001 -4.584984 31.634436 3.0
27.9259 12.35715 -83.518402 1.0
31.220699 12.87445 38.499901 2.0
36.7864 2.79695 -45.347 0.0
31.415899 11.96475 -74.323997 1.0
28.373301 7.85505 14.7748 2.0
-40.738998 -19.129351 40.9977 3.0
-9.95995 -2.6946 27.18375 3.0
8.309767 2.51425 10.936 3.0
28.940451 18.755529 46.085297 2.0
28.2279 14.20705 34.699001 2.0
29.23875 8.056499 -55.574753 1.0
2.6572 1.97195 14.7745 3.0
-11.5502 -2.1569 26.72015 3.0
-24.673115 -0.86145 28.521 3.0
-10.3627 4.736075 21.460499 3.0
21.693794 5.898542 -13.272738 3.0
26.733999 5.36365 26.318399 2.0
-10.9627 4.0511 21.852249 3.0
-4.09438 2.69679 17.66338 3.0
3.9302 8.9193 8.4389 3.0
27.8083 9.8998 -48.172951 1.0
24.340599 6.99215 13.2905 2.0
-9.3798 -2.07025 26.393 3.0
37.478752 21.54525 67.529549 2.0
28.967798 9.097783 17.848366 2.0
-12.4461 -3.48585 28.2498 3.0
20.250185 6.875072 -12.512675 3.0
32.451698 15.0828 45.399048 2.0
31.1758 15.99025 44.466 2.0
-24.928051 -3.68955 30.738201 3.0
22.421951 6.23015 -14.93795 3.0
-18.438299 -4.62085 31.9662 3.0
13.4825 6.779425 -2.896 3.0
26.507401 8.209133 -10.088766 2.0
1.7457 8.316083 10.662666 3.0
-11.322666 -3.34875 27.9011 3.0
27.284101 11.499217 13.420133 2.0
-13.2201 -0.24775 25.3258 3.0
23.535999 9.5203 5.93895 2.0
22.4128 10.42505 -19.884199 3.0
32.313175 19.667549 56.720596 2.0
41.7896 -4.00025 -37.262699 0.0
40.8494 6.88815 -47.8218 0.0
40.693298 4.2623 -46.334702 0.0
27.482349 7.2437 12.633101 2.0
-23.317799 -6.497825 34.930576 3.0
28.0592 12.07945 -74.1623 1.0
2.85245 0.65785 16.1299 3.0
29.304899 13.05465 -55.773399 1.0
3.5753 3.39305 11.9855 3.0
31.754349 3.82715 -46.70615 0.0
-37.314003 -12.676374 34.684029 3.0
-48.614201 -26.070049 40.655102 3.0
29.474701 6.82885 36.517799 2.0
-2.9347 9.09105 16.381701 3.0
28.146601 10.77315 -60.013401 1.0
5.765525 6.2822 6.737725 3.0
-13.152 1.81345 23.697701 3.0
31.928951 18.975151 53.706047 2.0
-8.677433 -1.08155 24.754366 3.0
-5.54025 8.4664 18.8437 3.0
30.571701 12.509282 35.01347 2.0
37.30925 15.73435 60.360497 2.0
9.46925 7.0837 1.93155 3.0
-14.4814 -1.92135 27.3799 3.0
8.183701 6.11875 2.85525 3.0
17.563301 7.7939 -10.8361 3.0
31.641434 12.688583 40.046734 2.0
45.755497 -6.82843 -35.179798 0.0
-13.507719 1.26505 24.458281 3.0
36.48674 18.68235 60.295097 2.0
-6.8956 3.62765 18.9408 3.0
-14.3406 -0.18905 25.6628 3.0
21.4121 8.43245 -17.6754 3.0
27.755199 10.75755 -52.424198 1.0
23.929399 10.34115 5.6518 2.0
11.6427 6.20035 0.681 3.0
-6.541 2.45755 19.281 3.0
32.119499 20.198151 58.736099 2.0
33.830933 0.42085 -38.919735 0.0
27.895016 10.528922 -51.318058 1.0
14.945672 4.537664 0.887271 3.0
28.128151 8.14905 9.6641 2.0
17.783899 7.93085 -12.632 3.0
26.1747 8.96445 -17.0711 2.0
32.499001 18.1087 -80.595352 1.0
30.688499 13.1028 -81.669548 1.0
33.372967 1.170583 -40.831131 0.0
27.396299 10.08535 -45.7407 1.0
-11.6796 -0.94151 25.419682 3.0
-9.87162 0.08965 23.706181 3.0
2.8559 9.3067 9.45125 3.0
34.633202 21.52635 66.124199 2.0
31.474501 8.526816 39.708233 2.0
-13.0446 -1.36225 26.6558 3.0
27.098 6.68565 -24.1896 2.0
36.291 22.329651 68.990501 2.0
11.23605 3.50825 9.09005 3.0
25.881433 7.68175 2.709683 2.0
13.31174 4.48999 4.2779 3.0
37.424999 16.43475 61.594898 2.0
25.499842 8.07831 -4.71272 2.0
43.894733 -2.83175 -39.823101 0.0
31.120066 14.307617 -85.72187 1.0
32.222198 2.50185 -43.728699 0.0
-2.3632 0.83775 20.1117 3.0
27.7414 11.40685 -63.6096 1.0
43.700161 26.858828 82.435036 2.0
28.5487 12.62375 -57.249802 1.0
-41.9002 -19.416149 37.674061 3.0
-22.2313 -3.82355 31.374001 3.0
28.021299 12.63455 -26.202801 1.0
40.318279 2.82531 -45.084202 0.0
27.274162 11.095688 -7.946912 2.0
42.330101 -6.914 -32.967079 0.0
35.678101 3.36505 -45.176601 0.0
-41.1138 -19.647484 39.069103 3.0
-27.65155 -7.3811 34.852551 3.0
28.8353 7.72605 20.986601 2.0
25.5485 6.45015 14.7976 2.0
7.507033 8.316283 4.110467 3.0
20.391899 7.37325 -13.6471 3.0
-0.1548 0.00085 21.9725 3.0
50.267601 -6.97905 -38.118401 0.0
-30.504 -7.60615 33.173302 3.0
25.8533 8.60965 -11.625 2.0
-24.691315 -8.325168 37.446247 3.0
31.3887 13.04775 -76.436401 1.0
41.918976 -6.86855 -29.877125 0.0
-40.4039 -17.557751 36.8526 3.0
-19.9631 -5.02135 32.599899 3.0
-17.337 -7.32025 34.046299 3.0
-7.4312 1.11505 21.6143 3.0
-12.5133 -2.0524 27.141201 3.0
37.135151 -3.23465 -34.0536 0.0
-43.5429 -17.376949 36.160099 3.0
11.304 9.17225 -0.5944 3.0
29.10165 12.177299 -48.207748 1.0
29.225779 10.68685 -38.88588 1.0
31.1078 10.48575 -59.581799 1.0
24.004 11.16445 12.8509 2.0
26.8694 11.41295 3.8521 2.0
29.733002 10.836599 -70.133598 1.0
46.4352 -3.50935 -40.776299 0.0
27.301214 15.293836 37.282043 2.0
-26.47975 -5.3603 32.2262 3.0
41.675831 -6.525292 -32.303871 0.0
39.521347 3.308375 -45.665524 0.0
-14.973475 -5.507675 30.762951 3.0
-34.956799 -14.59705 41.067402 3.0
44.490299 -7.5211 -33.532051 0.0
-25.088072 -2.490393 29.66107 3.0
12.26295 8.30655 -2.14705 3.0
28.334299 10.97105 -27.2617 1.0
-4.847 7.29395 17.6954 3.0
-27.5986 -6.46285 33.185001 3.0
33.742928 13.294451 47.751125 2.0
30.73905 10.7261 -70.899399 1.0
23.6765 9.36875 -24.8874 3.0
-2.7653 1.87145 18.625999 3.0
-18.49802 3.73281 24.290779 3.0
25.915073 11.0519 -10.8572 2.0
-16.487301 3.2913 24.2355 3.0
36.894115 -1.300817 -38.488499 0.0
33.209549 14.0328 46.257149 2.0
29.892599 9.76255 -50.829498 1.0
-3.597 7.77085 16.4842 3.0
-12.91595 0.24625 24.439199 3.0
50.698399 -7.42755 -36.880798 0.0
45.931931 -8.561984 -29.255934 0.0
27.545057 8.459508 -1.879186 2.0
13.6655 7.09925 -5.26 3.0
35.34235 17.451851 55.5681 2.0
38.101299 -4.60105 -31.950001 0.0
-43.037949 -19.260448 37.018101 3.0
-1.8995 0.19775 21.5949 3.0
22.857901 6.88405 -16.5392 3.0
51.0383 -9.86665 -31.465401 0.0
36.116348 0.5564 -41.531601 0.0
40.886497 0.98745 -43.449402 0.0
28.25885 10.83465 -57.043648 1.0
-19.660299 3.04425 25.0564 3.0
35.011265 6.10875 -49.041637 0.0
-23.266068 -0.253783 27.917665 3.0
-21.502768 -4.34345 32.1385 3.0
36.0597 13.98405 57.749802 2.0
-8.04005 -1.6213 25.64015 3.0
27.140699 9.39345 -31.0742 1.0
-23.433001 -2.93795 30.0765 3.0
12.767 7.72435 -2.7685 3.0
9.540267 5.97005 2.716333 3.0
24.098801 10.83735 9.1009 2.0
29.36565 9.28625 21.45575 2.0
26.311298 11.18215 -18.525351 2.0
29.101967 14.034583 -80.862 1.0
0.88552 -0.08737 20.685339 3.0
-6.9236 8.0917 19.881748 3.0
41.341625 -5.2521 -35.269524 0.0
38.938751 18.5243 66.897881 2.0
26.308201 8.01095 -6.468 2.0
45.116699 0.98675 -45.825001 0.0
-8.69285 0.4902 22.49885 3.0
39.347301 -4.6338 -33.696751 0.0
-2.29365 3.0992 16.17395 3.0
29.685501 13.2507 -66.492752 1.0
32.717274 4.78005 -47.943451 0.0
-17.001301 -5.62645 32.008598 3.0
31.0874 11.342899 -69.745102 1.0
26.7969 7.14685 8.9992 2.0
37.967098 23.397449 72.389999 2.0
26.137749 7.88515 -0.86135 2.0
12.5908 4.16965 7.3394 3.0
30.273901 13.776 -77.045578 1.0
-13.09761 7.06657 22.263371 3.0
29.739799 13.441299 34.819397 2.0
30.5632 11.66705 -50.665298 1.0
44.347099 2.34765 -46.273899 0.0
-1.064033 5.126517 13.889533 3.0
43.5634 0.7584 -44.095501 0.0
-4.35645 -0.3043 23.57785 3.0
37.664421 -2.13163 -37.4776 0.0
-26.327818 -0.123483 28.675982 3.0
47.687897 -7.348939 -35.901623 0.0
33.027699 7.74105 -52.935799 0.0
19.4699 12.29115 -12.822599 3.0
27.587099 8.50045 -8.5531 2.0
26.954599 12.11875 19.014 2.0
23.7722 7.49105 -19.4174 3.0
4.9301 0.7561 14.32975 3.0
-38.979301 -13.98035 34.994598 3.0
47.863499 -9.92185 -30.808901 0.0
-1.325633 2.74915 16.121634 3.0
-21.6145 -8.16305 36.925652 3.0
1.6399 5.46615 11.4129 3.0
17.6418 3.90065 -3.8747 3.0
