# .PCD v0.7 - Point Cloud Data file format
VERSION 0.7
FIELDS x y z label
SIZE 4 4 4 4
TYPE F F F U
COUNT 1 1 1 1
WIDTH 1492
HEIGHT 1
VIEWPOINT 0 0 0 1 0 0 0
POINTS 1492
DATA ascii
31.480499 -1.27695 20.348049 2.0
23.480032 6.287683 -36.255985 3.0
28.461449 8.114599 -114.05325 1.0
24.308599 4.5198 -39.71405 3.0
57.203651 9.68795 104.02905 2.0
30.5254 4.25055 -96.864052 1.0
-51.088272 -11.746675 20.07695 3.0
25.12715 -0.9531 -9.16035 2.0
27.6684 2.681 4.9523 2.0
40.61277 1.505063 73.601761 2.0
-40.251099 -1.82065 14.48135 3.0
45.969749 5.9432 93.099304 2.0
38.396145 -0.041872 62.116817 2.0
-49.61438 -11.062234 21.405567 3.0
48.657772 3.127344 84.583107 2.0
28.16275 3.88805 -53.894402 1.0
27.613586 2.071437 -59.721912 1.0
24.892918 -2.86577 5.84323 2.0
25.646601 -4.16905 20.00705 2.0
28.1791 1.94315 -56.007149 1.0
25.888283 4.536616 -45.176018 1.0
28.61935 -0.090975 -16.040625 2.0
33.357101 -4.0619 36.707947 2.0
29.300955 1.278136 42.347134 2.0
-2.35999 0.653317 -2.370756 3.0
36.056152 -8.1259 48.6558 2.0
27.645399 2.629125 -67.358971 1.0
28.019468 2.263683 -22.489782 2.0
27.354099 2.7575 -6.3687 2.0
33.807583 -8.942834 44.387913 2.0
4.605 -2.14735 -4.18725 3.0
-10.894726 0.515125 4.083167 3.0
43.11105 4.09575 83.12545 2.0
33.662601 -7.57915 -69.025696 0.0
30.2006 0.700958 18.382668 2.0
40.655712 2.8388 78.174667 2.0
32.0919 -0.882475 -80.259277 0.0
26.690876 1.457575 -42.8895 1.0
28.0702 1.92325 -38.150002 2.0
26.348499 5.26005 -56.50425 1.0
-50.636395 -7.623704 16.967272 3.0
30.830551 0.96261 31.357149 2.0
29.854301 -5.53605 27.292999 2.0
23.1765 -2.35385 14.46575 2.0
27.420149 3.690744 18.429888 2.0
27.1672 6.62235 -99.967148 1.0
25.33305 -3.7888 10.04465 2.0
39.514099 3.81805 79.790649 2.0
36.107586 -7.6085 -72.157936 0.0
46.895699 4.11535 84.179352 2.0
4.8445 6.30495 -9.54205 3.0
30.191414 1.390375 24.378639 2.0
27.1229 1.707 -52.14325 1.0
32.858898 -1.93435 30.555651 2.0
25.720749 -2.55835 1.43365 2.0
13.873301 1.936575 -23.464024 3.0
27.8769 2.9176 -44.103897 1.0
26.080601 3.10625 -10.50355 2.0
4.43135 2.9324 -10.8759 3.0
0.4998 8.130899 -5.66245 3.0
41.939327 -11.6244 -69.296524 0.0
28.014 7.78765 -105.99765 1.0
24.2666 2.29545 -7.35715 2.0
39.927799 -0.382275 -79.317947 0.0
58.463402 14.53015 112.63745 2.0
-21.0793 -1.66195 11.75695 3.0
36.324734 -5.60115 47.972542 2.0
-53.70076 -10.163733 17.679691 3.0
28.8316 8.39505 -107.71585 1.0
29.857164 7.646683 -104.32166 1.0
27.09045 -5.394075 19.3645 2.0
25.618774 -6.167025 21.440926 2.0
47.294876 5.846933 89.625687 2.0
-20.422932 5.626908 7.416725 3.0
-27.682449 4.13746 10.38941 3.0
30.90675 0.4076 51.233101 2.0
51.385944 7.3937 95.349159 2.0
38.681252 1.52635 73.836853 2.0
-30.8445 -2.02725 15.45205 3.0
32.86525 -7.7686 -67.330048 0.0
25.838499 3.38485 -64.68721 1.0
29.226049 4.86915 -74.362106 1.0
-47.1437 -2.99025 14.86905 3.0
55.51363 11.732783 106.21175 2.0
20.114777 3.165725 -35.277748 3.0
24.994801 2.91385 -29.678749 2.0
-44.973099 -8.29345 20.05485 3.0
28.894737 2.118416 35.44939 2.0
34.692532 1.652983 68.627022 2.0
36.322842 -0.11975 56.522686 2.0
-43.374001 -2.00395 14.37535 3.0
28.66795 3.84925 -94.884148 1.0
27.906401 7.45115 -86.904648 1.0
35.357075 1.411375 70.706299 2.0
36.111401 -1.45975 -79.245201 0.0
27.49975 4.43395 -50.695599 1.0
33.460052 -6.49295 39.827248 2.0
24.077976 -0.676525 -1.213625 2.0
21.677299 5.4991 -33.463951 3.0
26.11495 1.54545 -41.0397 1.0
31.7596 5.26125 -86.51725 1.0
7.154901 6.382925 -12.603149 3.0
-18.097025 0.676625 8.059449 3.0
28.590099 -0.92965 -2.11835 2.0
39.074703 -2.290783 -78.262749 0.0
36.853802 0.03885 -80.268951 0.0
-42.900604 -6.59685 18.603535 3.0
-12.117962 3.09355 3.876312 3.0
26.674751 5.96195 -71.833702 1.0
-61.344666 -16.792116 20.851915 3.0
25.3839 3.44415 -32.556648 2.0
42.491962 -5.49085 64.743721 2.0
8.6593 6.14945 -14.28035 3.0
30.464798 4.656183 -98.890717 1.0
3.896333 -0.120417 -6.89505 3.0
34.284698 -9.61545 47.945148 2.0
25.26355 -4.72035 14.76705 2.0
27.7668 2.59715 -26.96295 2.0
13.6257 7.27105 -19.290751 3.0
-14.90904 -0.54376 7.59073 3.0
-24.75815 -2.94725 14.86315 3.0
34.089199 -0.37535 46.84787 2.0
27.1931 4.42075 -92.79155 1.0
23.521425 -1.905075 7.665825 2.0
29.396267 7.078925 -92.929108 1.0
28.67915 2.6677 16.720449 2.0
20.1628 4.84215 -31.907749 3.0
43.440742 -0.299514 72.072479 2.0
26.369301 3.47955 32.8843 2.0
24.4627 2.50955 -0.37675 2.0
26.128433 3.11115 -7.93175 2.0
30.66815 5.1165 -102.90105 1.0
28.136051 3.446925 29.916401 2.0
15.8084 -0.20045 -23.04525 3.0
-17.604799 4.093866 6.75725 3.0
27.855499 6.92305 -117.2666 1.0
-34.109917 3.6129 11.898882 3.0
-55.110397 -11.33375 18.128201 3.0
17.005199 6.90065 -25.64205 3.0
-34.1535 -1.82835 15.18905 3.0
-9.198825 7.0756 3.689325 3.0
28.0385 3.80705 22.16585 2.0
-29.702425 -3.9896 18.091825 3.0
60.667099 14.961201 112.8595 2.0
31.951 0.83455 -82.891853 0.0
34.116501 -3.064616 -77.423752 0.0
-23.1469 -6.24725 15.57965 3.0
-21.661949 1.26725 9.83485 3.0
27.142532 6.501783 -76.891685 1.0
-25.385201 -4.69865 16.25375 3.0
-14.086334 2.111317 5.32465 3.0
38.357124 -0.3747 59.866451 2.0
27.703224 -2.5492 3.4017 2.0
45.1698 -15.80315 -65.974953 0.0
10.133776 1.0998 -16.275375 3.0
-37.886803 -3.4987 16.5268 3.0
25.106049 3.49635 11.1001 2.0
23.195499 -0.86725 11.04135 2.0
30.605949 6.913625 -107.80502 1.0
28.414173 -7.625325 29.879475 2.0
26.677401 3.59935 -21.295349 2.0
39.619404 -8.808058 -72.11377 0.0
27.089001 -7.55165 27.89925 2.0
36.516499 -0.920283 53.237316 2.0
23.88142 1.405521 -5.826213 2.0
-19.990299 -3.08945 12.01185 3.0
31.958099 0.41455 57.103352 2.0
48.027 -15.43885 -68.039848 0.0
30.18675 1.102113 22.1035 2.0
28.960501 5.96935 -79.649246 1.0
-27.896606 2.093462 11.378094 3.0
29.0502 0.27575 -12.51025 2.0
43.114925 -6.929575 66.346825 2.0
27.257999 0.26605 -25.452551 2.0
35.327103 -6.1316 45.105751 2.0
25.072701 3.98065 -43.345551 1.0
-20.5756 -0.3446 10.37055 3.0
-53.770302 -12.84815 19.927549 3.0
31.6996 -1.69375 23.103251 2.0
-31.059475 3.09345 11.843676 3.0
27.75585 2.6625 -15.54705 2.0
51.974876 2.430613 90.301804 2.0
26.3104 5.23615 -82.209251 1.0
38.434261 2.171883 76.564583 2.0
25.699301 4.83195 -72.904648 1.0
34.084099 -7.41865 42.078251 2.0
-23.726151 -0.71535 12.2606 3.0
-23.562683 0.909733 10.681267 3.0
26.91925 -4.2419 12.0963 2.0
-46.68639 -9.42992 22.378719 3.0
30.647066 4.642084 -88.414551 1.0
18.13055 4.06455 -29.942299 3.0
34.857311 -5.418489 -74.353767 0.0
35.471352 -2.6088 45.056633 2.0
-36.879833 2.135975 12.395283 3.0
42.048882 -2.828 64.394455 2.0
38.1726 -5.0416 -75.852448 0.0
34.213383 -4.31785 39.8438 2.0
27.323151 2.52635 -65.5896 1.0
62.493652 17.431751 117.1657 2.0
27.347076 4.889775 -99.597946 1.0
42.873699 3.0981 78.965195 2.0
34.088024 -0.618942 45.045734 2.0
28.1901 0.85595 -34.662449 2.0
8.604167 0.638883 -13.382016 3.0
30.403851 -8.670799 37.951851 2.0
28.6882 2.876025 -73.505104 1.0
-19.6409 -6.14415 13.19615 3.0
26.716301 -3.7159 8.703699 2.0
-6.616745 -1.0831 3.421856 3.0
-13.7396 -2.80325 10.19655 3.0
-9.358 -0.636233 4.837017 3.0
41.128063 -6.10525 61.042553 2.0
37.295128 -6.89905 51.408325 2.0
-11.877916 6.618392 4.947275 3.0
28.0735 1.49005 43.858452 2.0
17.0173 1.88935 -27.90015 3.0
43.780167 0.76685 74.294685 2.0
27.334 1.71425 40.435551 2.0
29.835949 -7.3845 32.623001 2.0
36.632973 -11.070175 -65.425423 0.0
36.816368 -8.659283 -70.922958 0.0
28.5123 1.30545 -6.96695 2.0
44.0634 1.93525 77.19455 2.0
-0.907092 1.578167 -4.624025 3.0
32.6488 -5.89485 36.9594 2.0
36.363041 -6.569641 -73.665382 0.0
60.174599 16.57605 115.64845 2.0
-31.638523 -2.846788 16.844902 3.0
49.063148 4.8841 87.438095 2.0
54.342575 7.731 97.456375 2.0
28.646034 0.871161 -8.671806 2.0
-1.94885 -2.16155 -0.15105 3.0
50.351181 1.883136 86.380806 2.0
25.1642 1.8475 -34.349899 2.0
29.350174 0.4034 7.54075 2.0
-25.914371 5.08706 9.20064 3.0
44.592182 5.658907 90.031891 2.0
-12.85065 0.16535 5.65745 3.0
23.809401 1.50115 0.90225 2.0
-47.687149 -8.0741 17.428083 3.0
58.678074 14.128025 110.40483 2.0
39.443901 -5.23085 56.48745 2.0
16.840651 -0.1484 -24.943399 3.0
26.1996 4.96615 -78.710548 1.0
45.966759 -0.151 76.599991 2.0
-3.901925 0.59205 -0.903525 3.0
28.905399 3.61205 -90.968948 1.0
23.755301 -3.67505 13.23145 2.0
-18.693901 -0.46725 9.648951 3.0
38.116962 1.04541 68.716293 2.0
5.147817 1.326979 -10.420338 3.0
6.82525 -0.2119 -8.65925 3.0
30.2549 -8.31705 36.031349 2.0
24.8957 2.82625 -16.21105 2.0
-27.040899 -6.1008 18.36915 3.0
-22.922825 -3.5915 14.0478 3.0
28.4443 2.04405 37.76965 2.0
30.356482 1.354066 34.905949 2.0
25.378588 4.363017 -53.127209 1.0
26.612963 3.10515 1.1062 2.0
29.098148 -0.4599 -5.55955 2.0
12.635275 3.5942 -21.815826 3.0
25.891151 -2.1874 -1.7429 2.0
43.397316 -6.93187 -77.065971 0.0
9.56785 4.149025 -16.577126 3.0
28.051332 2.152617 -18.594599 2.0
26.713299 -8.4928 31.394899 2.0
23.589001 1.07055 -2.70465 2.0
27.418533 5.83845 -63.385754 1.0
34.815224 -7.882475 45.320152 2.0
31.980576 -2.84015 29.148773 2.0
40.885574 -5.2704 -76.303329 0.0
34.332481 -1.638623 39.560364 2.0
34.855709 -5.633525 43.1227 2.0
50.882301 6.15745 92.011147 2.0
28.2771 1.38025 -40.145748 1.0
-22.623562 5.885913 7.8817 3.0
33.0033 -3.09425 33.988152 2.0
-17.615749 7.124963 6.460307 3.0
-48.076324 -10.160824 20.700951 3.0
-52.926102 -12.62275 21.65995 3.0
37.68903 -10.913585 -67.553581 0.0
39.886688 -0.3964 62.889763 2.0
26.382999 -3.424275 6.6954 2.0
23.7999 -5.30085 19.52335 2.0
40.281052 -0.1685 64.623856 2.0
-44.451897 -4.68545 15.9307 3.0
25.802771 4.89393 -67.379471 1.0
30.191299 7.98175 -116.02985 1.0
29.527248 5.5391 -84.249702 1.0
31.356361 0.573438 37.310902 2.0
2.368 3.76635 -8.82995 3.0
23.5889 -1.00585 3.93955 2.0
22.895399 -3.43805 16.77795 2.0
27.4981 6.39115 -74.697548 1.0
47.016251 -2.12985 77.2435 2.0
42.092529 3.893607 81.705589 2.0
28.355076 6.7639 -83.892799 1.0
15.2188 4.64115 -23.974649 3.0
1.5245 -0.357275 -4.708087 3.0
-17.638 -1.81455 10.14155 3.0
-10.46675 4.0982 2.867783 3.0
28.9986 -4.11735 -75.230453 0.0
47.399864 6.2773 92.114044 2.0
27.6712 -1.11095 -7.8658 2.0
-30.755501 4.78945 11.37025 3.0
34.067352 -0.26855 49.944847 2.0
9.526075 2.8822 -18.182076 3.0
31.409016 -0.583392 24.835649 2.0
29.157499 3.32115 -78.819847 1.0
28.4028 -5.66115 23.134399 2.0
-28.152966 -0.661358 13.470925 3.0
27.766285 2.902533 -39.585033 1.0
10.0835 -0.374725 -13.098475 3.0
-25.351133 -0.686267 12.831134 3.0
28.467766 5.117217 -66.505882 1.0
8.1443 -0.25845 -10.03235 3.0
31.482065 -3.33365 27.269117 2.0
25.08744 2.68267 -13.07915 2.0
28.851299 1.11705 -0.73695 2.0
-41.3265 -2.9027 15.2058 3.0
42.868599 -15.71395 -60.91325 0.0
-29.682449 -5.7746 19.9293 3.0
33.2864 0.75035 58.361649 2.0
40.913364 1.0811 71.729881 2.0
26.64555 5.8743 -92.139847 1.0
6.3989 3.35215 -13.0815 3.0
34.075699 0.081767 52.423286 2.0
40.010376 -4.11995 58.606876 2.0
35.7369 -9.00025 -69.152946 0.0
-6.1185 -1.87655 4.902625 3.0
29.022598 4.5202 -69.331146 1.0
30.893 5.99265 -110.18695 1.0
-49.81015 -5.7017 16.411251 3.0
24.894951 2.5435 -47.759453 1.0
44.391201 4.937375 87.048599 2.0
8.76185 1.54875 -15.1214 3.0
30.477867 -1.095783 12.901783 2.0
41.825546 -0.966325 66.860626 2.0
-13.101112 5.39315 4.929188 3.0
27.5359 5.6527 -108.89085 1.0
-41.876499 -7.17805 21.292351 3.0
30.172401 0.3618 54.099998 2.0
-44.397831 -7.308234 18.377817 3.0
31.945549 0.28875 47.307301 2.0
28.700018 2.70721 -87.260307 1.0
25.099499 0.3856 -23.165401 2.0
27.613159 2.595333 -13.880474 2.0
-24.697733 2.105275 10.415625 3.0
46.657883 -16.574934 -65.374992 0.0
10.62246 5.6139 -17.133856 3.0
36.47406 -2.28649 49.102932 2.0
31.015131 6.597284 -115.55459 1.0
28.597168 -8.900716 35.342083 2.0
26.3787 4.85395 -47.362652 1.0
44.211052 -4.6019 69.660553 2.0
-19.409081 2.487171 8.075396 3.0
24.2174 2.78605 5.47585 2.0
29.071049 -1.83615 7.27665 2.0
15.909575 1.7245 -25.891125 3.0
42.9156 -2.09285 67.631683 2.0
30.337799 4.11115 -91.968353 1.0
24.603128 -0.073317 -15.106488 2.0
38.116402 -4.6866 53.772598 2.0
-56.305599 -13.19055 21.70425 3.0
28.956051 8.294251 -102.33255 1.0
-60.311897 -14.423467 18.517567 3.0
7.3829 7.566225 -11.36985 3.0
-44.833199 -3.3502 15.0359 3.0
24.118099 -4.7734 17.136749 2.0
31.401573 -5.842 -70.100227 0.0
46.110832 3.713767 82.422417 2.0
-15.04006 6.615017 6.057047 3.0
40.299599 -2.896871 60.382568 2.0
15.1674 -1.418067 -20.87715 3.0
-10.328966 -2.485517 10.106517 3.0
25.4098 1.67215 -44.005249 1.0
-35.096767 -2.75505 16.308207 3.0
41.357784 -4.617807 61.702045 2.0
-35.108101 -5.38825 20.825649 3.0
32.836952 -8.83485 42.257652 2.0
7.54695 2.6712 -15.560949 3.0
-32.398651 -4.868098 19.607477 3.0
23.871849 2.97165 10.15645 2.0
27.885849 -0.6627 -11.0509 2.0
29.151382 1.865967 13.123333 2.0
19.365227 -0.353833 -29.185606 3.0
46.098743 -17.430841 -62.876968 0.0
45.934269 -3.096007 74.340981 2.0
26.689949 3.2372 10.048349 2.0
39.11935 0.5289 65.645401 2.0
33.355202 2.99315 -83.907852 0.0
27.607101 7.1276 -111.36909 1.0
35.342201 0.8407 60.942223 2.0
34.705101 -0.01575 55.693451 2.0
49.910149 5.955117 90.421829 2.0
28.423401 -1.53645 0.35895 2.0
13.625074 4.887975 -21.845474 3.0
41.084629 0.291721 68.047424 2.0
45.306583 -0.384908 75.13015 2.0
27.0662 3.55085 14.9048 2.0
29.292049 5.1248 -89.197845 1.0
24.70755 -2.5012 4.270375 2.0
43.883797 -16.203251 -63.687851 0.0
32.349216 -4.155425 -75.136078 0.0
27.887749 7.64245 -98.93145 1.0
29.078274 6.579212 -87.860123 1.0
11.606251 5.0609 -18.931 3.0
33.802799 -1.60065 36.876751 2.0
-60.305401 -15.59745 21.180349 3.0
18.289499 2.279983 -30.666016 3.0
3.4003 6.85525 -8.03705 3.0
17.326599 5.36585 -26.66715 3.0
35.266632 -8.68015 46.869518 2.0
-3.904562 -1.641813 1.608713 3.0
26.063101 3.16515 4.02205 2.0
29.924644 -4.422335 24.104115 2.0
20.202982 6.6375 -30.713449 3.0
-22.4326 -1.8604 12.61125 3.0
42.849911 -0.648006 70.137077 2.0
35.875359 -3.31229 46.505112 2.0
29.904398 -3.687117 20.642616 2.0
37.569302 -2.80755 -78.015549 0.0
27.1201 4.9498 -89.295395 1.0
-19.105797 3.924425 7.423571 3.0
25.347 4.2189 -48.42635 1.0
33.2421 -5.75195 -72.5802 0.0
-2.890767 5.351117 -3.14465 3.0
28.925726 2.834725 -71.816025 1.0
39.406792 0.644724 67.428505 2.0
43.181164 -3.633942 67.113045 2.0
4.6815 -1.07825 -5.8773 3.0
-15.915801 -1.7082 9.31055 3.0
-39.884518 -5.566317 19.299049 3.0
30.834869 -0.28761 21.643089 2.0
28.672699 2.6423 -68.629951 1.0
24.2069 -6.29045 22.80485 2.0
25.8972 -2.852783 3.092183 2.0
31.8456 0.37375 49.9408 2.0
38.881001 0.99515 70.350952 2.0
24.113201 0.3426 -12.1539 2.0
30.4944 1.88805 -85.763649 0.0
54.832741 11.35152 107.61748 2.0
-38.599651 -2.365286 15.083614 3.0
18.711842 5.283816 -28.847034 3.0
-47.5242 -5.0748 15.86935 3.0
37.237923 -5.299525 50.763176 2.0
27.102749 4.1856 -80.114449 1.0
26.47695 0.4983 -32.117699 2.0
48.318802 -0.0999 80.958801 2.0
-31.104198 -0.50983 13.880051 3.0
52.889923 8.683373 98.644348 2.0
38.628082 0.365033 -79.925636 0.0
29.50675 -0.52085 -82.319099 0.0
23.684401 -0.25625 -5.93925 2.0
37.820328 -1.903 54.122849 2.0
27.598101 2.69515 -1.57495 2.0
26.451351 3.84935 -74.871506 1.0
36.826992 -4.640912 49.341187 2.0
23.504375 1.913425 -39.91975 3.0
26.876549 6.54445 -79.845795 1.0
27.317425 2.266625 -61.301399 1.0
29.7195 7.19315 -96.539848 1.0
16.290901 3.3756 -28.2456 3.0
-42.598175 -5.610612 17.349937 3.0
46.105976 2.065358 79.625031 2.0
28.5991 3.34495 -56.697098 1.0
24.7432 -0.85835 -7.01045 2.0
32.1064 -6.56445 35.52195 2.0
42.64843 -3.920434 65.655548 2.0
25.376856 3.169183 -28.129374 2.0
-10.5242 6.27345 3.98255 3.0
-57.912167 -12.516083 18.217583 3.0
29.6929 1.4583 17.098049 2.0
43.313435 -1.875483 69.267944 2.0
27.08205 3.27035 -24.942501 2.0
11.868401 1.69935 -19.540983 3.0
35.866798 -5.40565 46.479973 2.0
25.544901 -0.90205 -16.67775 2.0
29.2125 4.26305 -70.996246 1.0
-53.949276 -8.627091 17.462521 3.0
-17.68475 -5.22545 12.55335 3.0
52.3853 3.97885 90.40065 2.0
53.157162 5.637663 93.972198 2.0
43.780052 -4.91875 67.964951 2.0
40.861252 2.36815 76.662048 2.0
25.686579 4.089709 17.067211 2.0
-37.372253 -5.908443 21.122736 3.0
27.6966 6.39225 -69.037552 1.0
29.648199 7.32755 -98.664146 1.0
31.873951 0.3311 44.33345 2.0
54.611267 10.285033 102.4585 2.0
28.105333 2.281117 1.75225 2.0
30.742434 6.320084 -106.30219 1.0
32.860481 -0.72965 35.91291 2.0
28.558968 5.62115 -71.861397 1.0
-37.609249 -4.67935 18.820299 3.0
-7.41404 2.40954 0.463637 3.0
26.8016 3.36595 -88.583847 1.0
-20.662876 -4.599725 13.145975 3.0
44.677799 -5.96535 70.578552 2.0
37.655449 0.8344 65.206749 2.0
28.834515 5.89485 -77.661461 1.0
31.8563 10.701349 -112.45145 1.0
13.634 -0.73545 -18.70475 3.0
-26.343885 1.401275 11.321153 3.0
-44.099739 -8.09548 21.378136 3.0
-20.82135 2.15725 8.8525 3.0
39.748001 -6.97695 -74.175247 0.0
-29.701801 0.059513 13.159325 3.0
47.566902 -0.0532 79.489853 2.0
25.2059 1.44605 -30.97085 2.0
28.069324 0.42585 -86.346222 0.0
32.773899 -6.6746 38.405273 2.0
32.895699 1.6663 62.814201 2.0
31.0956 9.0685 -114.2855 1.0
56.7145 12.575726 110.32295 2.0
32.378811 0.122585 41.668015 2.0
27.206249 6.6624 -104.67905 1.0
28.048399 4.042316 28.115952 2.0
31.102158 -4.838133 30.207891 2.0
28.892799 -6.099783 26.204248 2.0
23.8757 2.90725 -43.0485 1.0
27.164499 5.85235 -61.359852 1.0
30.580824 5.609725 -93.951752 1.0
25.2703 0.44905 -41.718102 1.0
41.295334 -1.09855 65.317039 2.0
-38.900433 0.145317 13.41435 3.0
24.9734 -6.69195 25.818951 2.0
25.659901 2.23105 -49.108849 1.0
6.0316 7.51575 -9.72555 3.0
-33.282845 -3.951539 18.578171 3.0
27.83065 3.1683 -74.880554 1.0
23.3137 0.49095 -37.447849 3.0
50.2542 4.528417 88.339111 2.0
27.6339 5.45685 -107.23405 1.0
25.486851 -4.3673 13.2491 2.0
34.929749 -2.369908 42.602959 2.0
-7.868475 -1.7323 6.384175 3.0
44.406757 -10.365425 -73.328514 0.0
38.898785 -10.3387 -69.612221 0.0
-12.5041 -2.20655 9.31745 3.0
29.430191 -7.11105 30.903799 2.0
53.4603 9.575499 101.12723 2.0
27.833733 2.68775 -36.435482 2.0
45.400772 -5.13243 72.836327 2.0
18.284 0.08335 -27.747217 3.0
41.62149 -15.489346 -63.617134 0.0
-36.815166 -1.4 14.303984 3.0
44.168365 -3.134234 70.091156 2.0
49.931625 6.717375 93.105225 2.0
26.326599 -1.88845 -4.76475 2.0
28.196699 2.38255 7.62845 2.0
26.596901 4.92335 -85.09185 1.0
23.901899 0.37895 -38.91235 1.0
31.721775 -0.393287 28.0676 2.0
28.0196 2.61505 -45.625351 1.0
-3.32395 6.8889 -2.7496 3.0
-7.96655 0.60585 2.19375 3.0
42.943401 5.39495 87.189453 2.0
26.544701 5.19415 -42.117451 1.0
-1.714 2.90715 -4.81885 3.0
48.672207 1.891036 83.317261 2.0
31.665499 -8.859117 40.155216 2.0
-24.356199 -6.22375 16.50305 3.0
23.663399 -0.30535 2.36745 2.0
28.433701 -3.20435 11.46145 2.0
21.319576 4.328125 -34.791702 3.0
0.5489 2.10305 -6.7119 3.0
28.629601 3.14165 -76.810303 1.0
29.672501 -1.25305 10.18975 2.0
26.322624 4.2572 19.310575 2.0
38.720528 -7.39249 55.141861 2.0
29.253099 8.15415 -110.51405 1.0
54.611252 11.06138 105.13707 2.0
26.737801 6.06895 -70.231552 1.0
28.4193 0.85555 -29.28775 2.0
25.9536 5.01805 -59.572151 1.0
29.671679 1.932332 31.877367 2.0
54.092499 4.922625 95.636574 2.0
2.4534 0.24445 -6.178 3.0
29.141899 2.63745 -67.159851 1.0
27.870399 -0.39625 -14.05625 2.0
-22.503149 -5.1126 14.5601 3.0
26.912724 1.343 -46.402199 1.0
47.284225 2.36205 81.394531 2.0
-50.630447 -9.534201 17.707649 3.0
27.110577 1.5457 -49.119049 1.0
28.165775 2.6976 10.91415 2.0
30.162575 1.195325 38.369026 2.0
28.319601 2.1246 3.617075 2.0
28.481449 0.9004 -24.3461 2.0
1.659961 -2.587003 -2.585203 3.0
34.701752 1.635562 65.637253 2.0
15.2509 7.19005 -22.18725 3.0
47.564331 -1.71915 78.638451 2.0
30.590666 6.31465 -101.36908 1.0
-8.1894 4.97095 1.51615 3.0
31.370667 0.587717 42.942657 2.0
24.4634 -1.77235 1.23605 2.0
41.983101 4.8828 85.024948 2.0
-6.634025 7.443775 1.9 3.0
22.289 2.86975 -39.767849 3.0
45.701801 -17.02895 -60.473652 0.0
30.893188 -4.254175 -74.276436 0.0
38.053001 -8.61355 53.896252 2.0
15.3736 3.59905 -25.437349 3.0
1.2542 5.3089 -7.3015 3.0
40.484299 -11.252399 -69.066895 0.0
38.374886 -13.091999 -62.905991 0.0
25.161949 3.28205 -54.128799 1.0
23.69005 -2.63255 8.971251 2.0
39.6614 -13.959663 -63.46838 0.0
-15.425751 -3.8624 11.36665 3.0
29.196199 0.48705 5.69225 2.0
27.603901 6.16245 -65.826752 1.0
25.365835 3.626134 12.557967 2.0
30.9256 -2.99225 -76.896553 0.0
37.322369 -4.088283 -76.611298 0.0
28.305868 2.08105 -3.709516 2.0
-1.8814 8.23005 -3.48415 3.0
28.938099 4.10535 -65.526398 1.0
27.17145 0.1553 -28.121799 2.0
30.446199 -1.46295 15.9268 2.0
27.9746 1.99045 -31.66715 2.0
24.2911 6.49045 -37.481251 3.0
38.678551 -1.5041 57.822998 2.0
39.126316 -7.793067 -73.106476 0.0
-9.665899 1.46615 2.2762 3.0
27.58345 3.629425 -42.343048 1.0
39.0993 -8.82435 56.756351 2.0
-5.38245 -0.859867 1.880133 3.0
28.9261 9.56355 -117.45335 1.0
29.143551 5.8652 -81.135002 1.0
25.733101 3.03905 -2.53945 2.0
45.479385 -1.62015 74.337112 2.0
27.5109 6.8529 -82.48175 1.0
37.695801 1.19565 72.789146 2.0
-30.707375 -4.9192 19.302324 3.0
24.33375 2.138233 -4.630683 2.0
26.868725 5.316875 -58.076675 1.0
25.542801 0.58725 -28.06575 2.0
29.587 0.862317 45.412449 2.0
40.491901 -8.42965 59.905548 2.0
10.1296 -1.106683 -11.070018 3.0
34.865093 1.410667 63.885723 2.0
35.931057 -1.581733 47.904465 2.0
26.921299 -5.23635 17.906898 2.0
49.436932 3.370364 85.891701 2.0
-10.705234 -1.452983 7.11195 3.0
2.630969 -1.639433 -4.116604 3.0
26.806999 3.01945 -9.22755 2.0
43.359966 -6.29745 67.645782 2.0
25.0079 2.87195 -51.146149 1.0
26.1546 -0.85525 -13.72195 2.0
41.924866 -8.796934 -73.10717 0.0
16.181999 3.92784 -26.895189 3.0
33.482498 -1.56055 -80.099396 0.0
34.163948 -6.86855 -71.305717 0.0
24.669615 1.13693 -21.364515 2.0
25.7409 -5.85945 19.98225 2.0
25.4874 -3.85705 18.473249 2.0
39.506599 -4.82885 -76.500252 0.0
37.69545 -3.8686 52.607849 2.0
32.637798 -0.12455 38.854416 2.0
-4.409783 4.355366 -1.947267 3.0
21.416576 2.080425 -35.840752 3.0
28.095301 1.4653 -43.282898 1.0
27.640263 7.143525 -85.156227 1.0
35.735226 -0.33305 54.508373 2.0
-3.1009 -1.39883 0.308303 3.0
25.684809 4.589494 -49.81477 1.0
27.565399 -2.90845 5.80695 2.0
29.5432 3.71985 -86.015152 1.0
-56.964897 -13.62175 19.190552 3.0
24.0466 2.24395 2.38175 2.0
7.090562 3.395194 -14.387844 3.0
30.890911 -4.7871 -72.880211 0.0
44.466969 -1.71515 72.290154 2.0
24.81525 2.3378 -23.8316 2.0
57.9972 10.14685 105.56835 2.0
30.125216 7.820883 -112.57204 1.0
22.11735 2.334 -37.4702 3.0
30.677666 -2.091267 19.344618 2.0
2.9448 1.67779 -8.61688 3.0
12.6996 2.6829 -23.053749 3.0
-52.047901 -7.2873 17.069698 3.0
25.441799 1.89745 -38.694702 1.0
-52.400616 -12.355499 20.164 3.0
-35.207401 0.63145 13.02035 3.0
27.532301 2.76365 -4.93085 2.0
47.613251 5.0345 87.181503 2.0
28.939301 3.18455 26.664249 2.0
36.155251 -11.2591 -63.854347 0.0
27.545799 4.53095 -87.51815 1.0
28.295668 -0.519217 -9.154217 2.0
14.891567 0.915883 -23.027048 3.0
-7.15965 1.07025 1.0893 3.0
45.854301 5.45835 89.358749 2.0
26.658751 6.2985 -78.394447 1.0
56.188004 10.3237 102.71115 2.0
28.17075 3.15565 -50.50705 1.0
-5.886867 2.118083 -1.506083 3.0
31.914 -5.4392 -72.055206 0.0
48.402351 5.864625 90.662354 2.0
13.1866 5.90005 -19.61685 3.0
44.15601 -9.168683 -75.086792 0.0
52.2397 9.08455 103.5788 2.0
-28.118738 -3.13789 16.62145 3.0
26.633516 6.346867 -81.356636 1.0
26.653299 3.85055 31.448517 2.0
35.271999 -9.92895 -65.924599 0.0
25.7736 3.85535 15.44775 2.0
-6.151949 4.657583 -0.37275 3.0
33.392342 -4.908052 -74.383484 0.0
26.296875 -0.413125 -22.468124 2.0
16.324301 5.881025 -24.606525 3.0
10.5931 3.23145 -19.218849 3.0
25.599216 3.066833 2.60835 2.0
26.094299 1.24745 -37.520481 2.0
26.496849 5.96635 -73.252396 1.0
-39.509212 -6.47175 21.318964 3.0
-0.393522 -2.634839 -0.931294 3.0
28.532736 0.921217 -20.010416 2.0
29.9184 6.646667 -91.438187 1.0
26.60253 4.603979 21.867567 2.0
27.064899 3.43665 -34.0961 2.0
32.625675 1.0446 60.105049 2.0
30.1723 -0.22625 14.73565 2.0
28.449974 5.357425 -68.151276 1.0
4.690374 5.399375 -10.63131 3.0
27.936666 2.11475 -28.512949 2.0
27.382757 7.33895 -91.610298 1.0
25.610874 -6.537075 22.9069 2.0
60.961399 17.179031 116.66863 2.0
11.377117 0.671683 -17.303885 3.0
29.591156 -2.326622 13.173065 2.0
25.601601 -5.1715 16.955101 2.0
28.590149 3.468575 -80.603104 1.0
6.89985 -1.0374 -6.66025 3.0
28.29315 1.73285 -48.271202 1.0
28.414299 0.9038 -25.968849 2.0
40.340302 -14.18265 -61.418999 0.0
50.071213 -0.14826 85.323013 2.0
44.612373 3.829175 82.3181 2.0
28.796301 0.16285 -17.41935 2.0
26.333418 -2.4331 -0.204667 2.0
5.4586 0.41105 -9.17955 3.0
53.913731 10.456817 103.85675 2.0
28.3113 -4.3144 16.441849 2.0
46.810101 -14.22455 -68.13385 0.0
28.1047 1.9038 -33.661148 2.0
48.364475 6.77735 95.287453 2.0
42.439701 -4.16755 -78.160553 0.0
26.908451 6.893 -89.155151 1.0
27.30995 6.5145 -106.0776 1.0
11.607683 3.892633 -19.945858 3.0
33.125183 -3.595483 35.335686 2.0
-2.551675 3.3085 -3.755625 3.0
29.140856 0.362072 -2.599172 2.0
46.087151 -13.52028 -69.588898 0.0
-5.5758 -2.43945 6.60385 3.0
28.099449 -1.1278 -4.601825 2.0
-35.37532 -4.337213 18.921629 3.0
23.7201 -3.12865 11.82255 2.0
25.882734 -0.027967 -25.417917 2.0
28.9713 6.88715 -89.980247 1.0
19.2551 4.15105 -31.05875 3.0
-21.509501 4.7453 7.96205 3.0
53.296432 3.67035 93.166542 2.0
-45.485962 -8.849816 21.339249 3.0
37.196472 -8.161474 52.132927 2.0
-33.653549 -0.9471 14.018 3.0
34.699951 -4.07785 41.424202 2.0
-9.902675 -1.96785 8.38995 3.0
41.750999 -15.2423 -61.832199 0.0
44.109604 4.417725 84.582649 2.0
22.4501 0.17685 -35.206051 3.0
-3.724 2.456617 -3.224984 3.0
-26.380482 0.121183 12.330317 3.0
-14.384992 5.3798 5.551908 3.0
-6.3868 2.95585 -0.40365 3.0
39.576176 -12.086033 -67.367859 0.0
-21.9823 3.00695 9.02015 3.0
27.365484 4.660808 25.066017 2.0
29.311401 0.1158 0.98105 2.0
30.357466 -5.349717 28.6033 2.0
-6.893659 5.423733 0.592358 3.0
-42.153847 -6.715925 19.9121 3.0
29.370756 8.624783 -115.10003 1.0
25.903601 -6.8669 24.316549 2.0
28.349325 1.39445 -21.351826 2.0
29.598368 1.846408 19.857441 2.0
0.354 0.381933 -4.534892 3.0
40.388287 -1.603847 62.403458 2.0
-16.583933 1.895067 6.8793 3.0
43.1474 1.84595 76.148048 2.0
26.302401 3.92755 -39.540249 1.0
42.024849 -7.611375 63.349125 2.0
28.100185 3.385803 19.606337 2.0
-7.8773 -0.386233 3.326492 3.0
23.8708 2.12015 -1.69965 2.0
27.287001 4.73485 -97.796951 1.0
31.095032 0.618825 29.866268 2.0
25.3426 3.46855 -57.13385 1.0
27.343735 4.087083 -44.956348 1.0
-4.4502 -2.43905 4.15295 3.0
27.894262 -6.422888 24.889225 2.0
28.445251 1.8816 -52.535351 1.0
3.6856 5.69925 -9.07065 3.0
34.386116 -0.611133 48.197704 2.0
27.338301 -8.92025 32.557652 2.0
29.0417 -8.33685 33.283352 2.0
29.387901 4.71565 -76.104851 1.0
3.86635 1.72645 -9.801701 3.0
30.931351 -7.25605 35.2705 2.0
36.197102 -9.23495 51.788448 2.0
32.776199 -9.67835 44.95055 2.0
56.604 11.04065 104.03195 2.0
24.428146 -0.847163 -4.14421 2.0
28.8092 1.45965 41.064949 2.0
-8.1126 -2.20445 8.05995 3.0
30.74682 -0.50859 19.459751 2.0
24.1108 -0.21245 -8.584 2.0
-12.861161 4.09518 4.473158 3.0
21.890251 3.91225 -37.088501 3.0
24.250599 3.13405 -41.737549 3.0
28.587799 3.0548 -55.294998 1.0
24.782551 1.78625 -25.85935 2.0
50.136826 7.554075 98.809296 2.0
28.250999 3.03765 15.46025 2.0
27.482599 4.41875 -94.382553 1.0
25.712217 3.440259 -63.313019 1.0
-25.3339 -2.05805 13.98065 3.0
25.1994 -0.88125 -41.36615 1.0
24.530365 2.125083 -10.416249 2.0
25.090399 -0.13819 -19.88187 2.0
32.051899 0.25155 40.311249 2.0
46.640675 0.935894 78.950951 2.0
25.075399 3.96265 -59.487652 1.0
29.358231 -3.58125 17.597618 2.0
33.560024 -1.131 38.330948 2.0
48.162601 -2.70395 79.664146 2.0
28.851578 0.607194 46.649441 2.0
47.07 -13.84405 -71.067047 0.0
8.344549 -0.6944 -8.7452 3.0
23.856825 0.8156 6.044425 2.0
27.907175 2.39565 -23.881599 2.0
44.129131 -15.41375 -65.169685 0.0
21.7623 0.31535 -33.973351 3.0
28.937799 8.45085 -104.94655 1.0
25.6556 3.20005 -22.118 2.0
24.716751 2.84895 -46.132751 1.0
25.903099 -1.98235 -3.4202 2.0
48.512501 6.47505 93.054222 2.0
33.59967 1.075771 61.101669 2.0
23.963799 1.31395 -8.3831 2.0
44.644066 -2.896158 71.626122 2.0
28.122952 4.84815 -60.743851 1.0
28.483999 1.10575 -11.19425 2.0
-14.50325 7.8707 6.0904 3.0
48.90435 6.871625 97.297592 2.0
25.7384 3.04345 -4.34625 2.0
-12.5046 7.88885 5.64945 3.0
26.298302 0.2206 -29.16815 2.0
35.302425 -0.31055 53.113373 2.0
26.0937 -1.013 -12.3186 2.0
-5.7341 0.59255 0.59545 3.0
47.752602 -16.68915 -64.49955 0.0
-42.692135 -4.65705 16.304382 3.0
28.755699 -1.56355 2.99855 2.0
11.112118 -0.614633 -14.311316 3.0
30.511698 4.88775 -90.831017 1.0
27.716467 7.562933 -94.419647 1.0
-8.298367 6.69085 2.74725 3.0
53.66589 7.162625 96.368904 2.0
29.972099 1.93145 27.732149 2.0
-5.0716 5.26065 -1.06385 3.0
28.0896 2.322316 -64.489281 1.0
-1.5112 -0.33295 -1.98845 3.0
30.0296 1.43565 -84.559052 0.0
25.492735 5.31605 -40.043583 3.0
1.5638 8.07555 -6.50005 3.0
41.830017 -7.86735 -74.26741 0.0
25.885201 1.1468 -35.25745 2.0
36.6782 1.52395 73.930649 2.0
32.592953 -1.6344 29.117416 2.0
28.2785 7.67985 -95.954651 1.0
26.8463 -6.184475 22.136076 2.0
-25.596001 6.26835 8.6244 3.0
27.678675 2.694825 6.304225 2.0
27.5163 3.05405 -30.969749 2.0
30.402451 4.40115 -93.372849 1.0
55.367699 8.576901 100.2473 2.0
19.333889 0.59675 -30.14505 3.0
27.686951 2.8316 -69.571503 1.0
43.920403 3.2274 79.926498 2.0
-39.9137 -0.6172 13.8771 3.0
-40.083004 -4.300343 16.919514 3.0
25.2253 3.11095 -26.585251 2.0
27.79105 7.07675 -118.6058 1.0
14.3697 -0.59455 -20.166149 3.0
40.2813 1.01105 70.541351 2.0
-33.56105 1.36205 12.62515 3.0
29.196875 0.1377 3.01135 2.0
44.860828 -12.175195 -70.853516 0.0
26.106983 2.4392 -55.887985 1.0
30.643215 6.358732 -103.46169 1.0
50.9104 2.3494 87.614326 2.0
-0.828364 5.14825 -5.108452 3.0
28.402668 -2.392683 -80.529922 0.0
45.109776 -15.042425 -67.329178 0.0
-0.9605 3.74955 -5.54995 3.0
28.842476 3.6077 -62.173172 1.0
34.357533 0.860133 -81.662178 0.0
27.46545 7.3436 -97.584106 1.0
24.0285 -0.18325 -2.50795 2.0
39.823734 -7.339766 57.822701 2.0
45.058701 5.15985 88.320351 2.0
29.811295 -2.602939 15.399605 2.0
30.91905 0.584878 45.345966 2.0
-26.244101 -4.94295 17.26815 3.0
27.692101 6.89485 -114.04401 1.0
26.460199 0.22545 -43.362251 1.0
27.5812 2.82225 -17.36075 2.0
28.368027 2.664683 12.316525 2.0
38.83773 -4.369791 55.649216 2.0
23.342699 3.57845 -39.298851 3.0
33.045567 0.284817 54.128719 2.0
31.810699 10.32635 -113.78655 1.0
-46.437901 -8.83035 19.354549 3.0
37.920074 -12.2907 -64.892654 0.0
21.904499 6.81065 -33.343151 3.0
26.287449 3.891025 -71.952522 1.0
40.450649 -5.6876 59.343147 2.0
31.05245 -3.29745 25.127701 2.0
23.31365 1.9063 4.88725 2.0
28.8943 2.34545 -63.017651 1.0
26.71335 -4.7317 15.1665 2.0
40.850899 -6.7445 -74.917297 0.0
52.308498 9.11435 101.61255 2.0
28.86355 2.2867 -60.129097 1.0
25.398899 2.89525 -11.62725 2.0
-15.5464 4.163763 5.9193 3.0
28.1474 2.815872 33.095474 2.0
26.605865 6.132584 -75.733185 1.0
36.918674 1.14885 67.825203 2.0
37.132198 -0.0186 59.495449 2.0
30.2952 0.94935 40.361851 2.0
31.64135 -4.641317 31.849434 2.0
43.900501 -16.675383 -61.271748 0.0
20.792999 1.19975 -33.27005 3.0
48.635899 -2.04355 81.073448 2.0
35.487782 -0.7298 50.411205 2.0
49.352261 0.628415 83.610931 2.0
30.0798 -1.17945 -81.32135 0.0
26.947651 5.7448 -64.702599 1.0
-50.520432 -10.759883 22.324883 3.0
13.6579 0.9285 -21.236549 3.0
24.212643 1.305292 -13.080016 2.0
33.499165 4.130516 -84.725517 0.0
-32.473202 -2.15695 15.80345 3.0
19.554899 3.33295 -32.882751 3.0
28.940376 -4.828025 21.286125 2.0
30.9883 0.59995 27.567249 2.0
42.674103 3.389542 80.380699 2.0
28.9984 2.96945 23.90955 2.0
29.4438 4.94275 -78.974106 1.0
-41.935501 -1.95765 14.51435 3.0
-35.713402 -1.83495 14.97105 3.0
25.688583 3.027966 0.167967 2.0
28.1954 -1.40675 -83.116447 0.0
-5.062117 1.201433 -0.673667 3.0
-31.386454 1.896358 12.286825 3.0
32.292648 -1.4035 26.405212 2.0
29.7276 5.08165 -85.467651 1.0
28.781799 0.9018 -4.10145 2.0
36.719402 -1.08255 51.947865 2.0
41.574066 -3.143725 63.08535 2.0
-26.2682 4.1226 10.0212 3.0
51.38142 7.896 96.896255 2.0
25.393368 3.05655 -18.893002 2.0
47.904648 5.3957 88.53212 2.0
6.39974 1.92286 -13.113001 3.0
35.395599 -4.899325 44.138199 2.0
33.271835 0.543717 57.064484 2.0
-21.811001 -4.2989 13.796249 3.0
55.899002 12.15615 107.53965 2.0
41.89365 -14.61765 -65.150452 0.0
56.394722 8.623321 101.05949 2.0
29.6334 4.6814 -81.447449 1.0
33.166878 1.156875 -82.438225 0.0
34.92675 2.939 -83.259949 0.0
26.119999 -4.07505 11.07325 2.0
-11.626763 1.825103 3.61059 3.0
-3.5025 -2.520117 2.49125 3.0
31.8874 0.29549 52.091969 2.0
-16.894732 -4.080583 11.572983 3.0
22.491301 5.19595 -34.711349 3.0
50.596901 5.072117 89.673599 2.0
26.416 2.0575 -53.280746 1.0
29.598324 3.43195 -89.044174 1.0
-4.4964 3.0536 -2.01555 3.0
27.677849 4.09305 -49.438801 1.0
38.640301 1.8373 75.195557 2.0
55.343365 7.88485 98.941246 2.0
29.339045 2.345256 -86.163513 1.0
51.937534 5.397917 91.89682 2.0
27.0012 5.64865 -95.436249 1.0
27.26825 2.02685 -58.247101 1.0
46.62635 -12.9631 -72.07515 0.0
-26.903881 -2.14901 14.931749 3.0
47.299469 -15.917951 -66.520256 0.0
24.3591 1.07065 -17.686951 2.0
29.905399 6.23595 -88.845947 1.0
-16.090094 -0.4043 8.124949 3.0
30.051901 6.81915 -94.394547 1.0
21.3353 -0.9031 -31.795601 3.0
6.31425 5.3218 -12.5611 3.0
35.286098 -3.06893 43.853508 2.0
28.098402 1.871817 39.251049 2.0
27.3971 -0.18415 -18.596149 2.0
30.793333 0.586422 25.368607 2.0
37.3979 -0.844883 56.363911 2.0
34.1866 -3.099617 39.393253 2.0
33.877682 -0.641417 43.614025 2.0
26.0749 -1.71405 -6.0272 2.0
28.100067 -4.174675 14.548317 2.0
32.920853 -2.562114 -77.828247 0.0
-23.559 6.77555 7.74865 3.0
36.163498 -6.885 48.060753 2.0
24.209599 -0.59025 -10.311399 2.0
27.388201 1.27395 -41.111511 1.0
34.634453 0.471883 58.708069 2.0
12.447684 -0.576722 -16.841967 3.0
28.4077 1.00305 -30.749649 2.0
46.690651 -17.288101 -64.062599 0.0
27.076 5.42055 26.84465 2.0
30.736275 6.719025 -109.12643 1.0
-52.276299 -10.111151 17.766951 3.0
26.668934 5.0784 -86.61319 1.0
29.828756 2.142483 29.062471 2.0
41.564499 -3.21945 -78.252953 0.0
24.924999 2.02435 -28.66695 2.0
43.103882 -14.584651 -65.6521 0.0
38.641098 -2.907325 56.077477 2.0
26.47085 2.8886 35.441597 2.0
25.386801 4.17115 -62.298653 1.0
26.92705 6.8151 -87.536499 1.0
31.928831 0.175712 34.350544 2.0
28.493999 3.74835 -83.579849 1.0
28.774401 1.91495 9.77635 2.0
36.9356 2.1849 -81.601898 0.0
27.122499 5.43505 -55.48785 1.0
31.7048 -5.42515 33.38905 2.0
25.721149 3.05725 -58.630348 1.0
31.869726 0.360717 48.621033 2.0
-49.526104 -9.900817 18.309717 3.0
26.0963 3.89655 -37.384251 2.0
29.72245 4.60915 -83.362526 1.0
27.5972 -1.79685 -2.28445 2.0
-12.86915 -1.603775 8.13035 3.0
23.092733 5.094783 -36.821117 3.0
28.692951 3.32995 -58.5872 1.0
31.6821 6.37525 -87.157951 1.0
-1.125389 7.375808 -4.401747 3.0
-6.477933 6.69715 0.840583 3.0
41.305901 0.54625 69.32135 2.0
26.120701 -0.50905 -18.175249 2.0
38.170284 -5.915989 53.398121 2.0
57.949799 11.7152 106.32865 2.0
-15.63075 1.110783 6.394134 3.0
30.822001 -1.90635 -78.999649 0.0
-32.36153 -0.37162 13.65345 3.0
27.805401 4.26465 -52.719151 1.0
20.158701 0.06745 -31.00005 3.0
28.042049 2.9151 -47.033752 1.0
30.3493 -3.57795 22.47275 2.0
21.3358 3.44435 -35.87225 3.0
33.698933 -8.381634 43.092369 2.0
26.699301 3.47945 13.15355 2.0
-32.546185 -5.82111 20.936661 3.0
-16.364651 6.69045 6.2292 3.0
45.618908 -11.291817 -74.064392 0.0
29.2731 -3.00955 14.20985 2.0
-37.423615 -0.394712 13.549063 3.0
28.860718 5.3677 -73.163239 1.0
29.374649 6.09795 -86.711197 1.0
0.5353 3.608275 -6.614225 3.0
28.768076 1.383575 0.639675 2.0
35.843727 0.2738 57.67065 2.0
25.811323 4.365172 -69.642082 1.0
29.928951 7.3771 -101.1128 1.0
37.197567 -2.632114 51.326691 2.0
28.927052 1.597763 8.318925 2.0
26.484539 5.51603 -62.491692 1.0
44.129169 -13.136439 -68.886909 0.0
37.849167 -5.815867 -74.894951 0.0
33.814201 -4.06605 38.36235 2.0
-54.507965 -12.249017 18.775885 3.0
27.4604 4.20305 -47.853149 1.0
-2.2274 -3.18315 2.58945 3.0
0.5351 -1.956358 -2.429842 3.0
39.486298 2.55295 77.249054 2.0
28.082726 8.1733 -117.35907 1.0
28.4172 4.88525 -63.6315 1.0
29.837234 1.10205 14.526851 2.0
58.573025 12.895451 109.3667 2.0
29.385374 0.32795 49.1791 2.0
37.158268 -7.393494 -73.11377 0.0
27.846075 7.351025 -90.344673 1.0
17.570751 -0.43355 -25.94305 3.0
45.635742 -12.115972 -71.857513 0.0
28.185452 7.944112 -115.37399 1.0
31.5138 -1.57155 21.58215 2.0
-59.374767 -15.301883 19.570868 3.0
27.87265 2.972575 -72.509521 1.0
28.375887 3.838114 25.30633 2.0
35.868 -9.576984 -68.031487 0.0
27.123499 1.94845 -56.709217 1.0
35.608513 -4.860663 -75.356781 0.0
31.91605 0.2903 54.730598 2.0
28.58725 3.8987 -86.844421 1.0
37.862801 -3.08505 53.659348 2.0
-30.718517 -3.396839 17.519909 3.0
-32.659088 -3.373767 17.640373 3.0
39.638313 -9.62305 -71.140991 0.0
28.378376 1.597475 -9.7346 2.0
-11.896597 0.421192 4.849283 3.0
27.357201 1.825825 -55.053101 1.0
26.0847 3.10065 -6.66435 2.0
-0.158012 -0.880125 -2.863575 3.0
-56.671864 -12.287917 18.305349 3.0
3.3605 3.33925 -9.55595 3.0
26.5903 -0.19795 -20.70455 2.0
-12.888875 -3.502525 11.059601 3.0
42.215652 -6.0785 -76.372803 0.0
27.8895 -3.2521 8.641101 2.0
34.636852 -8.3776 -69.05928 0.0
-36.62936 -3.312508 16.65243 3.0
30.35306 -0.09944 17.35952 2.0
35.112801 -1.403565 45.107964 2.0
-1.612698 1.092763 -3.396348 3.0
36.934853 0.6822 64.12825 2.0
57.907745 12.877625 108.08452 2.0
-9.4901 2.76325 2.00635 3.0
32.836498 -6.71655 -69.663452 0.0
35.6213 -9.34485 50.676048 2.0
14.5746 3.56565 -24.16415 3.0
-48.501499 -9.96805 19.50795 3.0
-56.08345 -10.395761 17.91861 3.0
49.188248 -0.390567 82.700989 2.0
-14.92311 -2.566467 9.847466 3.0
25.1432 2.09515 -35.67305 2.0
47.303001 6.08825 95.372147 2.0
41.0886 1.89575 74.980049 2.0
-17.376469 5.895134 6.544617 3.0
24.073151 1.0236 3.45205 2.0
25.6896 -7.75295 28.68535 2.0
43.074539 -7.70011 -75.494949 0.0
25.943951 2.1704 -51.819649 1.0
27.3993 0.182625 -22.431301 2.0
27.4527 2.30765 -88.420547 0.0
26.120651 -7.1595 25.63245 2.0
30.669949 -4.4664 27.558849 2.0
53.627602 10.05845 105.55425 2.0
9.9125 1.8496 -17.253151 3.0
25.430325 4.3885 -54.8853 1.0
27.69825 2.24805 -62.516602 1.0
44.09845 -13.9631 -67.7295 0.0
27.5986 4.93235 -56.913651 1.0
-28.6492 -4.02405 17.418051 3.0
-1.5958 5.70655 -4.29395 3.0
-41.683151 -7.5593 22.503551 3.0
29.829201 1.81635 21.08485 2.0
-45.279301 -7.10085 17.51775 3.0
30.5634 6.85315 -105.18745 1.0
28.715651 2.7238 31.064526 2.0
27.51935 -0.03225 -19.8284 2.0
39.119873 -1.112775 59.200298 2.0
-9.101559 -1.317856 5.901697 3.0
17.1791 3.75095 -29.03635 3.0
13.4599 2.9317 -24.0912 3.0
22.9081 -0.82545 -34.622952 3.0
26.7264 4.19175 -77.786247 1.0
0.36625 6.0842 -5.926641 3.0
24.287825 -2.7087 7.103838 2.0
28.13055 1.6678 -35.788948 2.0
27.0973 0.71945 -35.239449 2.0
26.709101 3.57555 -20.053949 2.0
1.382875 1.901683 -7.674475 3.0
30.859051 1.0338 -83.4459 0.0
35.738499 0.686683 62.107349 2.0
25.68325 4.6965 -64.726547 1.0
11.3546 -1.50985 -13.38465 3.0
28.043501 7.03355 -79.683746 1.0
27.0714 6.33985 -102.05535 1.0
37.377434 -1.88825 -78.825012 0.0
32.744347 -7.4908 39.657799 2.0
13.302851 -1.29545 -17.6506 3.0
24.503901 3.80175 14.94745 2.0
10.1885 7.28375 -15.83005 3.0
-8.316299 3.41 0.965275 3.0
-13.25785 2.93855 4.66575 3.0
40.878735 -13.715383 -65.946747 0.0
30.021 -0.72415 7.59365 2.0
25.4582 4.41525 -66.124649 1.0
28.297501 -1.14565 -3.30045 2.0
-49.1231 -7.62665 16.95225 3.0
29.3416 -1.15835 4.90195 2.0
31.986401 -1.54785 24.30755 2.0
29.3015 -6.79445 29.327351 2.0
30.517654 1.322583 32.611374 2.0
-37.887897 -4.085482 17.616528 3.0
28.3668 3.064975 17.846951 2.0
51.395702 8.312367 99.68042 2.0
26.88895 3.05 -0.11645 2.0
28.809799 0.38525 -84.519852 0.0
22.960899 1.47525 3.78815 2.0
-4.880275 6.62965 -1.0846 3.0
24.027901 0.96205 -11.01675 2.0
25.6063 3.70755 -35.79475 2.0
24.326 1.16775 -40.454449 1.0
27.966801 3.98255 -91.864052 1.0
59.296349 14.78425 111.7674 2.0
30.399651 -6.384217 31.118816 2.0
45.196281 -11.312683 -72.909149 0.0
-5.1454 7.27055 -0.02545 3.0
28.651249 -3.07385 -78.069748 0.0
26.7066 5.25145 -50.23505 1.0
29.927801 0.484 47.710724 2.0
12.522699 1.6954 -20.580349 3.0
12.119717 -1.093183 -15.580667 3.0
-6.7178 -1.98665 6.03915 3.0
30.735001 3.44565 -88.154549 1.0
36.698475 1.086793 65.931839 2.0
25.168098 0.73565 -26.36195 2.0
29.61315 0.93545 10.6621 2.0
28.123301 4.03895 -85.016548 1.0
56.1119 11.3498 105.213 2.0
26.60675 3.307133 -13.582717 2.0
26.0525 4.93145 -75.704048 1.0
25.608101 3.68345 -60.888351 1.0
56.688 12.73339 108.27567 2.0
-23.910379 4.609804 8.902496 3.0
-1.6378 -1.2976 -1.0958 3.0
40.058601 -2.88805 -77.848206 0.0
30.2607 -2.72045 18.068951 2.0
26.420296 5.266275 24.324459 2.0
26.440901 3.98345 -41.99855 1.0
-29.6437 -2.146217 15.63755 3.0
37.681358 1.28509 69.89209 2.0
27.878876 7.415475 -112.52255 1.0
46.722 4.58335 85.292847 2.0
17.4589 2.09525 -29.018002 3.0
30.385344 0.322972 50.134197 2.0
34.6987 -3.7954 -76.613449 0.0
35.786701 0.29865 -80.797653 0.0
24.715631 2.08215 -20.452217 2.0
30.744049 0.9621 36.275398 2.0
29.695801 0.7393 12.133801 2.0
41.36824 -10.819125 -70.088898 0.0
50.882351 6.90275 94.306396 2.0
27.34215 1.61705 -50.839447 1.0
36.600502 -7.607925 49.881474 2.0
43.3255 0.4426 73.028748 2.0
27.8468 6.44785 -71.139954 1.0
-29.07675 2.191275 11.651925 3.0
23.391701 0.06255 8.35685 2.0
25.34 3.28485 -31.35265 2.0
26.61245 4.6816 -46.141098 1.0
7.5234 0.26835 -11.173651 3.0
28.387518 2.19215 36.550732 2.0
-48.695 -5.36915 16.004351 3.0
24.035801 -0.90935 -39.380753 1.0
28.445148 2.94305 -53.186699 1.0
29.09885 0.96875 44.24575 2.0
32.433048 -3.3343 32.131802 2.0
27.635651 -8.28505 30.634548 2.0
45.090099 -12.884984 -69.89682 0.0
5.2619 3.21625 -11.71285 3.0
27.476549 -0.4575 -15.868401 2.0
2.44195 6.8008 -7.2964 3.0
51.850399 2.36725 89.06295 2.0
-1.68305 -3.1571 0.975175 3.0
45.624153 5.135025 87.099724 2.0
28.146851 -7.10595 27.197701 2.0
11.833349 2.6893 -21.73765 3.0
29.4669 9.88755 -116.38845 1.0
24.158676 -1.143475 -0.061975 2.0
47.097 -3.50625 77.373352 2.0
27.275 0.22435 -26.91625 2.0
43.092899 -13.8466 -67.059753 0.0
24.859875 2.444975 -15.0623 2.0
29.364025 3.611025 -74.354172 1.0
-46.546169 -7.493217 17.345884 3.0
47.294853 -17.7822 -62.0672 0.0
30.8095 6.80115 -112.53265 1.0
25.6185 0.90855 -42.785648 1.0
33.601833 -2.88235 36.609989 2.0
-10.359633 5.29285 3.296317 3.0
13.9552 1.40625 -22.38225 3.0
24.7005 -0.03965 -16.64715 2.0
-54.90995 -13.28805 19.74205 3.0
38.125038 -10.47955 -68.696754 0.0
14.9275 1.96655 -25.06065 3.0
26.705526 5.760678 -66.85009 1.0
-35.8871 2.83105 12.14135 3.0
-11.73405 -0.9364 6.64305 3.0
-45.107948 -5.67285 16.46105 3.0
52.633301 4.105833 91.771248 2.0
-16.94215 3.088375 6.728125 3.0
27.018049 5.62905 -96.640518 1.0
43.700974 -11.4042 -70.945496 0.0
-3.618676 -0.392212 -0.100383 3.0
35.260849 2.14575 -82.352905 0.0
-34.919647 -5.9533 21.9564 3.0
27.399 4.18255 29.19075 2.0
25.776199 3.88625 -68.078552 1.0
24.526501 4.3002 17.305149 2.0
-19.664499 6.475925 6.9748 3.0
4.7085 4.10245 -10.88885 3.0
42.14793 -5.635944 63.600769 2.0
43.123161 -10.46767 -71.917587 0.0
27.58235 3.9099 -89.680847 1.0
18.866501 2.2091 -32.101448 3.0
18.094299 5.65215 -27.572849 3.0
-47.676849 -3.945175 15.360937 3.0
27.685001 3.4574 -77.490799 1.0
50.941071 1.10945 87.242882 2.0
2.0365 2.69195 -8.36385 3.0
9.164013 -0.564413 -10.611787 3.0
3.456 0.675083 -7.689516 3.0
33.203308 -1.911983 33.650936 2.0
-0.10978 1.685 -5.5816 3.0
29.830999 -4.92575 25.295799 2.0
39.935127 -1.458625 -78.733696 0.0
-10.418079 1.079405 3.14102 3.0
42.584076 1.176225 73.970947 2.0
28.577101 5.890017 -74.568581 1.0
46.3288 6.31565 94.225349 2.0
40.190231 -2.093383 61.330181 2.0
26.362101 5.37625 -83.395447 1.0
-43.531601 -0.8909 13.97135 3.0
-45.853275 -2.879475 14.564674 3.0
29.9785 1.57755 23.179251 2.0
25.5968 3.161167 6.901417 2.0
-3.7623 7.69865 -1.89015 3.0
39.668076 -4.900025 57.692051 2.0
46.7677 -2.92385 75.896446 2.0
42.939571 -12.25012 -69.117821 0.0
33.919151 -7.3651 -70.171097 0.0
8.209351 6.66755 -13.30475 3.0
29.749067 1.15615 15.87935 2.0
34.048302 -0.06 51.147919 2.0
8.677493 5.357113 -15.170635 3.0
29.887699 -0.08755 10.0682 2.0
-3.7925 8.69335 -1.22025 3.0
24.33285 -3.47845 10.86385 2.0
32.920063 -1.325883 31.575951 2.0
34.014599 -5.4721 40.269348 2.0
29.612938 8.151438 -113.69432 1.0
16.4799 -1.48455 -23.250648 3.0
33.11425 -0.2707 44.461098 2.0
30.5259 4.9157 -95.555 1.0
28.091927 -4.880675 18.951324 2.0
32.0163 -0.14105 -81.183853 0.0
-40.388706 -5.053908 17.951 3.0
23.345875 2.19795 7.59735 2.0
20.149401 2.623075 -34.169224 3.0
24.322399 -5.71915 20.508051 2.0
41.379871 4.335271 82.551331 2.0
28.11235 4.7277 -59.504997 1.0
23.08215 -2.91075 15.7328 2.0
27.341551 4.81325 -53.661949 1.0
58.407738 11.370375 107.96094 2.0
30.7048 0.19815 52.45385 2.0
31.638176 0.155663 30.811155 2.0
23.140984 -2.13595 11.448183 2.0
30.583351 -2.629688 20.393974 2.0
26.2922 4.073317 18.083517 2.0
54.4221 6.11615 95.324654 2.0
29.091049 -4.1118 18.89225 2.0
45.330566 4.55315 84.700111 2.0
-28.142302 -1.383517 14.407533 3.0
43.709049 -9.54665 -74.059349 0.0
32.8503 -1.15655 32.755249 2.0
36.640648 1.10375 -80.936333 0.0
25.880249 3.206 -17.69235 2.0
17.833725 3.311475 -31.016273 3.0
-27.405899 3.07885 10.83315 3.0
41.883915 2.8619 78.366669 2.0
49.304462 7.058783 95.94735 2.0
26.133774 -1.21385 -10.339425 2.0
24.636749 5.31025 -38.902401 3.0
47.246201 6.05395 90.930946 2.0
28.747601 -2.24855 8.35835 2.0
23.06263 -1.602593 10.130225 2.0
14.280167 5.854983 -21.702652 3.0
60.149002 13.91075 112.74745 2.0
42.682976 0.137307 71.285507 2.0
56.690502 11.95585 106.03815 2.0
32.922707 0.15363 52.640923 2.0
-51.886353 -11.57475 19.0623 3.0
48.077187 1.168572 81.431931 2.0
28.493221 2.465165 34.299187 2.0
41.900848 2.149736 76.162292 2.0
29.627827 -3.583975 -76.355225 0.0
-59.184418 -14.106816 18.587484 3.0
26.7563 3.47125 -15.31045 2.0
27.4678 2.87 -11.65825 2.0
36.718662 -3.396142 49.389992 2.0
30.6299 5.432716 -96.646629 1.0
30.459633 5.08745 -89.67852 1.0
26.150299 3.71055 -33.400349 2.0
26.568693 -1.364825 -8.671901 2.0
31.3699 11.76335 -112.49155 1.0
46.683899 5.0254 86.473557 2.0
29.923126 1.909925 25.399487 2.0
5.668417 5.6467 -11.473267 3.0
26.408899 3.63105 -70.325546 1.0
27.499001 -2.2404 0.24785 2.0
40.369278 3.896727 80.580612 2.0
11.3991 6.42185 -17.530849 3.0
45.610001 -3.9031 73.319336 2.0
29.522741 -2.28413 -79.08007 0.0
59.695301 13.16515 111.43755 2.0
35.125198 -9.39125 -66.979446 0.0
-49.313 -10.80095 22.535351 3.0
-26.550501 -3.91955 16.52005 3.0
14.706175 2.85845 -26.163101 3.0
-18.899666 0.398233 8.896667 3.0
26.0655 4.95965 -40.99345 1.0
-3.43595 1.1178 -1.9669 3.0
6.0667 1.09135 -11.12375 3.0
33.83395 -6.89355 41.069302 2.0
24.0068 0.72375 0.05035 2.0
26.10675 3.593983 -29.525734 2.0
29.53565 3.87215 -93.942299 1.0
27.4505 6.56015 -109.76665 1.0
24.196199 3.01745 8.90665 2.0
21.67025 2.8829 -38.4837 3.0
46.298698 -4.1121 75.166046 2.0
33.7537 -8.41295 -66.869751 0.0
23.509501 -0.37335 5.01015 2.0
29.931824 5.686825 -87.821808 1.0
38.818764 -12.708 -65.617432 0.0
31.1143 4.72015 -87.354652 1.0
28.812532 8.229183 -109.1578 1.0
26.40448 3.215228 8.857328 2.0
28.449299 1.06545 -13.3169 2.0
40.873375 -3.71685 60.967903 2.0
62.337898 17.09515 118.2753 2.0
-23.573801 3.564133 9.273738 3.0
-33.917427 2.3748 12.1889 3.0
-14.677601 3.120017 5.52065 3.0
32.780548 -5.07425 36.153999 2.0
27.6467 5.85405 -111.70744 1.0
33.330124 -0.353579 42.122478 2.0
49.678669 2.344378 85.41703 2.0
26.5397 -7.43595 26.7698 2.0
24.849274 2.689025 -1.450975 2.0
55.904766 9.468967 101.9155 2.0
36.160149 -4.313975 47.225552 2.0
27.626333 2.594567 35.459061 2.0
42.971298 4.45335 84.389153 2.0
27.673935 0.288817 -23.54805 2.0
-18.901592 -2.612143 11.28278 3.0
31.374647 -2.589098 -77.880356 0.0
20.615049 5.834575 -31.5208 3.0
27.307188 4.394206 22.83816 2.0
28.479698 -2.4621 6.350525 2.0
27.870449 6.081417 -116.39497 1.0
-25.244333 -3.71935 15.661916 3.0
-42.903 -7.6752 21.459301 3.0
31.6269 -3.12155 26.14555 2.0
28.87035 -0.2485 -83.444649 0.0
45.195549 2.84375 79.964996 2.0
28.861366 0.691783 -6.057416 2.0
27.501167 0.927783 -37.715946 2.0
28.288651 1.3148 -15.59845 2.0
47.857147 4.049267 84.809616 2.0
39.056297 -2.589775 57.84375 2.0
27.513901 -2.76595 4.51445 2.0
61.955799 16.09395 115.28605 2.0
-50.649075 -11.56001 21.418472 3.0
-11.387328 -2.432522 9.664256 3.0
-35.623066 -3.431208 17.366301 3.0
45.742798 -17.7617 -61.73225 0.0
4.63735 0.1695 -7.9289 3.0
26.8986 -2.700383 2.426984 2.0
