# .PCD v0.7 - Point Cloud Data file format
VERSION 0.7
FIELDS x y z label
SIZE 4 4 4 4
TYPE F F F U
COUNT 1 1 1 1
WIDTH 1475
HEIGHT 1
VIEWPOINT 0 0 0 1 0 0 0
POINTS 1475
DATA ascii
-39.264999 17.110249 -1.42755 3.0
-45.6413 15.089062 -0.062363 3.0
16.065119 3.799511 -2.330314 0.0
29.114887 -4.608275 45.72126 0.0
-26.870682 9.651819 -2.837556 3.0
45.767952 -14.66455 83.592201 0.0
20.241926 5.694575 -78.126801 1.0
19.605545 1.64186 -29.833252 0.0
23.807867 -2.34715 18.838232 0.0
38.419773 -13.876175 70.543907 0.0
-53.102337 9.055769 8.623749 3.0
-31.907497 7.599667 1.08511 3.0
19.591949 4.5878 -54.5023 1.0
-49.912201 9.270701 9.064699 3.0
35.841267 -8.861667 76.155975 0.0
20.04985 2.8041 -11.971 0.0
28.493992 -12.52784 -83.551315 2.0
-30.5856 14.166426 -3.67905 3.0
22.586349 7.5383 -120.4702 1.0
20.426451 -0.196 -17.363701 0.0
29.457649 -4.0219 47.000401 0.0
19.102316 5.312666 -58.979065 1.0
15.442801 3.507425 -13.4568 0.0
47.226456 -15.626608 85.814644 0.0
5.298533 11.111516 -31.7108 3.0
16.61231 4.596727 -35.664883 0.0
1.13545 7.17895 -30.84425 3.0
32.132198 -11.861225 -87.922974 2.0
-35.595558 14.374292 -1.593692 3.0
18.412827 3.478125 -69.374672 1.0
21.889324 3.381175 21.311708 0.0
19.88925 0.0201 -23.1462 0.0
25.144503 1.120142 -99.372032 2.0
19.303284 -4.0736 7.155667 0.0
25.509451 2.303767 31.8361 0.0
33.24815 -8.0865 61.661652 0.0
23.789434 -0.914225 19.337191 0.0
21.313217 6.6097 -131.52423 1.0
-68.606453 6.489188 4.237063 3.0
20.09165 -6.532 21.508024 0.0
15.511925 3.474825 -17.932449 0.0
-45.337898 12.665012 2.382737 3.0
-19.487183 12.908032 -9.697833 3.0
20.642555 9.893083 -128.40642 1.0
-59.746246 8.913467 3.7267 3.0
36.47113 -16.391272 66.728149 0.0
-33.264252 6.5247 2.7286 3.0
10.360333 10.114108 -39.927948 3.0
30.240499 -3.2848 53.0331 0.0
15.53125 1.2871 -26.9279 0.0
16.039551 6.0957 -53.124199 3.0
19.279249 0.5626 -101.8483 2.0
13.39505 -0.8104 3.2669 0.0
37.774651 -9.7224 87.310799 0.0
30.904957 -11.385212 54.291294 0.0
26.138037 -10.378186 -83.118095 2.0
17.358116 0.058683 -25.36335 0.0
3.404487 10.365238 -30.86994 3.0
20.130751 0.79 -24.6133 0.0
19.336451 8.0222 -129.9102 1.0
63.830837 -5.6153 125.59164 0.0
20.26685 2.1287 -13.3164 0.0
21.095949 -0.2525 -3.0203 0.0
21.865206 -13.304372 42.298531 0.0
19.084351 7.28585 -78.239304 1.0
15.327733 3.202517 -24.631882 0.0
47.065052 -17.348457 84.833778 0.0
-44.679626 13.3584 1.62885 3.0
15.36085 2.1052 -52.984699 3.0
-9.00785 13.165 -17.6786 3.0
24.073076 -6.4393 -87.963326 2.0
22.58005 3.5274 24.8248 0.0
17.6943 1.2825 -36.88295 0.0
14.34535 -4.4579 19.804001 0.0
19.54915 3.3367 -48.035599 0.0
19.84045 1.3665 -33.909599 0.0
24.50765 -7.870567 33.890804 0.0
-32.878899 8.348533 1.650794 3.0
-47.913704 10.392574 6.322025 3.0
-28.801849 11.9818 -3.3228 3.0
54.266251 -9.1902 106.2581 0.0
32.504349 -14.482672 -84.460106 2.0
32.871063 -11.619101 58.719509 0.0
19.818501 3.0297 -6.6026 0.0
21.304449 -11.827167 38.688766 0.0
55.682701 -8.6484 109.4081 0.0
20.18075 6.4891 -77.868896 1.0
21.87775 1.6037 8.1599 0.0
20.03775 9.330466 -135.91173 1.0
-56.098427 10.132 3.6052 3.0
33.5112 -7.42315 74.062546 0.0
12.49206 4.49248 -48.052498 3.0
19.24395 9.0215 -104.1363 1.0
54.00285 -14.379551 98.099747 0.0
18.04425 5.5853 -54.067505 1.0
25.407021 -2.058244 28.837433 0.0
-29.388851 15.133142 -4.613392 3.0
36.809601 -11.32815 67.972351 0.0
17.464001 3.0349 -59.482452 1.0
5.70101 5.618629 -36.053349 3.0
22.745983 6.912034 -125.18846 1.0
8.295425 10.723625 -36.398926 3.0
32.15015 -10.09178 -90.023941 2.0
-34.107681 10.707034 0.877033 3.0
19.961416 2.7399 -8.3315 0.0
22.069725 1.570723 11.650718 0.0
-1.100725 5.063113 -20.926439 3.0
26.14625 -2.346134 32.123966 0.0
-1.0995 7.6477 -26.94685 3.0
15.4125 -1.3268 1.59955 0.0
18.967949 3.723 -32.978249 0.0
18.238649 4.2965 11.7189 0.0
-16.622683 13.293067 -11.5457 3.0
19.6702 9.4133 -124.1947 1.0
43.046051 -14.3738 78.995697 0.0
-7.938 13.392633 -18.445499 3.0
13.686725 -1.5513 4.875075 0.0
19.51775 -0.902225 -14.215825 0.0
-11.699851 9.510667 -15.4278 3.0
28.712986 -5.612163 -93.095726 2.0
18.733702 3.593572 -9.661772 0.0
37.04945 -9.9827 71.421799 0.0
38.312775 -10.4055 74.403229 0.0
25.364084 -4.378894 -92.932426 2.0
30.145996 -12.653045 53.858231 0.0
19.843451 7.3218 -126.8867 1.0
21.907568 -3.65045 11.119716 0.0
55.715324 -10.282575 104.51185 0.0
19.965549 -0.1731 -99.874702 2.0
18.701382 2.681792 -59.413757 1.0
-46.682899 10.72915 6.02395 3.0
19.901674 -4.3794 9.833975 0.0
26.1339 -7.10225 36.118801 0.0
15.6298 -1.946 -2.798183 0.0
-21.332331 8.2692 -4.49588 3.0
52.3461 -12.636367 97.093018 0.0
41.835178 -12.3474 78.732964 0.0
22.13365 -4.6205 15.9825 0.0
18.631018 1.374867 -40.399082 0.0
14.476717 -0.374767 -4.426534 0.0
-2.405933 11.599508 -24.061916 3.0
19.653099 2.79005 -62.436203 1.0
15.87505 3.87005 -39.125401 0.0
-5.899128 14.135267 -19.535311 3.0
10.39305 8.418 -41.908699 3.0
-43.889759 13.88415 0.727912 3.0
21.134233 6.647383 -97.575836 1.0
14.59805 -0.5038 2.3925 0.0
19.502163 -4.717075 11.258263 0.0
-54.09655 8.628575 9.063825 3.0
20.270802 2.30845 -10.254049 0.0
5.093 2.5155 -32.0751 3.0
22.525326 9.3934 -130.90836 1.0
9.74165 5.9086 -44.09795 3.0
15.06591 2.92888 -22.121281 0.0
25.62595 -10.8593 42.440102 0.0
17.314449 4.066 -11.0699 0.0
-5.117455 6.914278 -20.366022 3.0
39.306049 -10.1424 84.422997 0.0
18.070274 -4.002875 6.389525 0.0
15.904117 -5.131134 16.782167 0.0
21.384451 -0.2186 -98.048401 2.0
34.86105 -11.90045 -90.486923 2.0
65.11145 -6.0926 120.2045 0.0
28.32119 -6.087154 42.38591 0.0
40.190338 -11.905888 75.441261 0.0
19.832951 3.2994 -69.379601 1.0
-41.855053 9.9592 5.953475 3.0
35.539791 -14.380533 64.682617 0.0
15.02985 -1.3079 -5.7229 0.0
8.299371 7.71006 -39.879478 3.0
18.322119 6.933333 -69.560631 1.0
-41.403408 8.779699 6.890333 3.0
17.57295 7.2841 -85.806946 1.0
26.979851 3.1731 35.101398 0.0
-50.869751 9.725734 7.2873 3.0
18.386404 -0.576355 -18.342459 0.0
21.276001 -0.8961 -2.10395 0.0
26.40645 -4.3836 -93.481598 2.0
17.584049 7.4495 -92.806198 1.0
19.118799 5.1918 -93.154755 1.0
18.469149 -1.2865 -12.256967 0.0
-10.37392 6.636512 -14.612159 3.0
30.915749 -10.389666 53.52935 0.0
18.145901 8.056999 -91.814545 1.0
26.25555 -5.0275 33.0284 0.0
-59.07259 7.458067 6.65078 3.0
24.493275 -4.374725 22.212574 0.0
-13.67725 15.2937 -12.2815 3.0
40.14925 -10.582116 88.854881 0.0
21.7407 7.918525 -108.06942 1.0
14.615954 8.146844 -47.852612 3.0
19.352163 -3.079393 1.343993 0.0
35.531723 -9.287425 68.287422 0.0
11.25855 7.7353 -44.0275 3.0
-15.484365 9.904729 -11.908671 3.0
32.048073 -8.565226 -91.760895 2.0
35.600101 -14.577263 -87.128563 2.0
22.197651 -9.9434 35.292 0.0
22.849951 9.8864 -133.40089 1.0
-67.818199 5.145633 6.8883 3.0
27.729401 -4.0623 39.256775 0.0
15.68745 -4.31335 11.97225 0.0
36.304451 -10.1815 67.738197 0.0
17.455351 4.7526 -22.684401 0.0
25.376383 -0.705867 29.380432 0.0
20.12455 9.322 -111.30695 1.0
19.303989 3.32524 -5.90414 0.0
-11.77225 12.2092 -15.5271 3.0
14.639851 0.10355 -8.441151 0.0
-33.07415 17.8018 -3.9998 3.0
31.825455 -5.371846 66.146149 0.0
34.062748 -12.397034 61.387115 0.0
33.989998 -8.646851 63.358002 0.0
49.68745 -10.4453 98.469566 0.0
17.644442 3.854624 -3.625951 0.0
16.602932 3.942967 -2.912565 0.0
19.410151 7.4825 -81.942924 1.0
19.122326 3.901675 -46.725552 0.0
12.887983 6.169383 -50.129005 3.0
-26.945753 10.660214 -3.515414 3.0
-12.953751 7.070275 -11.949875 3.0
-64.116577 6.128533 6.658266 3.0
30.889734 -17.622183 59.841164 0.0
34.016273 -9.332925 61.544327 0.0
20.706299 5.608433 -86.358841 1.0
26.114162 -12.855025 46.848125 0.0
19.385494 3.32162 -9.697372 0.0
-0.3189 9.383251 -27.5453 3.0
-39.033798 10.8577 3.83795 3.0
21.298248 6.564809 -129.51764 1.0
33.192974 -12.358195 59.665054 0.0
-58.430759 7.89606 5.72593 3.0
17.932425 3.7384 -5.91575 0.0
45.279682 -10.736699 96.478874 0.0
19.339001 7.8597 -127.9015 1.0
18.33395 6.392925 -98.59317 1.0
52.837601 -15.598475 95.735298 0.0
19.68565 -2.03608 -4.94674 0.0
37.9077 -9.9531 75.649155 0.0
44.29705 -10.9997 90.003502 0.0
17.915417 3.190134 -63.888226 1.0
-30.05335 19.3132 -5.983 3.0
9.616699 6.59135 -43.634148 3.0
54.484703 -11.09415 102.04625 0.0
35.941452 -13.67835 -89.308701 2.0
18.165751 5.7353 -92.276703 1.0
-57.827751 8.0218 8.4048 3.0
-1.73525 8.4409 -26.4757 3.0
31.860403 -15.401067 -79.601715 2.0
16.341774 4.1834 -24.044825 0.0
55.289574 -10.70325 103.48433 0.0
16.387815 4.606427 -43.884094 0.0
32.670547 -6.398661 67.381813 0.0
47.337124 -11.14135 93.858887 0.0
18.35972 3.697203 -3.420477 0.0
19.375751 8.8358 -98.824699 1.0
19.619083 1.348837 -27.204533 0.0
21.419317 0.680333 0.081633 0.0
20.593901 4.68075 -83.929016 1.0
20.333599 9.6744 -129.83032 1.0
-40.455948 17.890701 -1.5128 3.0
18.73695 -2.4211 9.7851 0.0
17.478149 6.397 -54.224701 1.0
14.67365 0.3543 -13.4091 0.0
17.75915 3.7528 -70.570099 1.0
3.895117 6.34176 -33.581821 3.0
19.968349 5.38787 -72.661209 1.0
23.532099 -3.278125 17.0541 0.0
20.236876 6.4854 -82.460976 1.0
-32.604729 12.083467 -0.943958 3.0
29.3246 -5.401575 46.532211 0.0
30.655169 -14.826783 -80.855499 2.0
-51.846634 9.836792 6.113116 3.0
18.838072 4.369843 -39.643192 0.0
11.468325 9.1148 -42.315548 3.0
17.101984 -6.526583 24.299101 0.0
-45.367783 14.093974 0.601033 3.0
-16.59725 15.7995 -9.9341 3.0
14.0966 1.36825 -0.1835 0.0
52.565109 -11.333412 99.201241 0.0
14.74865 2.891233 -16.388433 0.0
3.43185 8.093975 -33.880226 3.0
18.710649 0.047217 -24.402885 0.0
47.77845 -15.115351 87.333954 0.0
6.304994 9.6175 -34.846767 3.0
64.886749 -7.86115 118.8775 0.0
13.693 0.099917 1.48115 0.0
36.262348 -9.4251 82.3563 0.0
16.6523 5.909 -72.521896 1.0
29.25065 1.0175 47.708401 0.0
18.732422 3.936729 -25.894545 0.0
14.9398 -5.53775 20.688648 0.0
18.818254 -9.305745 30.86767 0.0
47.931252 -8.9201 103.9475 0.0
38.31665 -9.873575 82.585327 0.0
-36.131905 18.348154 -2.860369 3.0
19.524651 3.3085 -46.742802 0.0
19.99235 9.603 -128.67731 1.0
18.146049 7.1528 -75.9963 1.0
35.465897 -13.58485 -88.535095 2.0
27.121298 -2.917137 -95.334938 2.0
22.431982 -2.296867 7.115367 0.0
55.875568 -9.12158 107.04105 0.0
24.58465 2.5102 29.695101 0.0
17.319698 4.2667 7.6513 0.0
-4.506925 8.113625 -22.633076 3.0
65.197052 -4.8883 122.8021 0.0
16.43165 1.9055 -42.088501 0.0
22.875935 -3.357013 13.678358 0.0
-8.236999 14.5429 -17.730099 3.0
21.68981 -1.3955 2.439756 0.0
34.474701 -8.6082 79.454201 0.0
-12.83575 10.06325 -15.343424 3.0
34.628551 -12.845272 -88.88723 2.0
38.20285 -10.604 73.019302 0.0
-6.91935 11.1701 -20.120701 3.0
18.120575 8.11055 -94.088768 1.0
48.66975 -10.530867 97.497261 0.0
17.6528 7.427775 -89.947495 1.0
29.344316 0.366342 47.94656 0.0
19.323549 -7.6579 25.676201 0.0
16.631504 0.154854 -25.14444 0.0
16.395281 3.817033 -10.191789 0.0
34.390148 -18.045799 -80.796204 2.0
20.94425 8.67175 -108.87825 1.0
25.33235 -6.886633 33.497765 0.0
26.9774 2.14395 35.040497 0.0
19.835649 3.585 -65.481445 1.0
-31.908182 18.385401 -5.1059 3.0
16.789749 4.8289 -73.504204 1.0
46.288502 -17.355133 83.371475 0.0
35.392319 -12.897103 -89.815659 2.0
27.873865 -5.13235 40.31245 0.0
25.071365 -5.801933 30.043932 0.0
15.35975 3.430633 -8.0923 0.0
-34.576584 11.879533 0.366633 3.0
21.8978 -10.5162 36.316452 0.0
67.854683 -5.097033 125.36547 0.0
22.308662 1.343112 12.838326 0.0
55.211151 -13.61235 100.38382 0.0
-5.806675 11.343525 -21.094725 3.0
19.69265 0.5819 -29.520901 0.0
40.476402 -12.49375 75.709656 0.0
20.158251 -10.486 35.250599 0.0
-14.378718 11.639596 -13.626746 3.0
35.271389 -15.63449 64.165977 0.0
62.108948 -7.694658 115.36549 0.0
29.1105 -3.6975 45.161201 0.0
24.117149 3.104033 29.309732 0.0
23.957401 -7.7449 32.44455 0.0
27.177849 -9.070749 -87.912003 2.0
17.49555 7.2665 -91.4786 1.0
22.312675 6.43535 -111.89403 1.0
26.620392 -2.330492 -95.820572 2.0
6.802329 5.697179 -38.127674 3.0
22.055225 -2.18065 -94.635895 2.0
30.74115 -18.3004 60.0182 0.0
57.899452 -8.284 117.53004 0.0
30.604733 -14.0854 55.900032 0.0
30.93042 -5.172114 -94.475723 2.0
21.93181 -2.11968 1.53818 0.0
33.862949 -16.779566 -79.239235 2.0
19.82115 -9.7499 33.3871 0.0
23.079689 7.137875 -132.5999 1.0
13.579166 8.703633 -45.647217 3.0
17.2934 -2.90875 7.50005 0.0
-61.392708 6.80235 7.595167 3.0
18.894001 1.0717 -36.959053 0.0
31.816782 -10.11235 55.371353 0.0
6.414483 3.347829 -35.364838 3.0
29.959051 -14.0776 -83.298637 2.0
-3.494625 14.279675 -20.9172 3.0
17.095701 1.514283 -38.285854 0.0
24.245249 -1.126067 22.805132 0.0
-18.19125 16.896999 -8.3045 3.0
-41.662449 12.330667 2.5112 3.0
15.20255 2.8805 -27.050549 0.0
20.99025 5.504 -93.063866 1.0
28.955717 -15.311267 54.729065 0.0
21.691799 -6.8436 24.83065 0.0
16.028065 -5.508043 20.143143 0.0
-35.988049 9.6326 3.1981 3.0
40.403507 -16.360767 73.717155 0.0
21.0651 8.3626 -106.67995 1.0
13.8741 5.35785 -51.625084 3.0
21.022249 0.102467 -4.4654 0.0
46.308681 -13.693715 85.69471 0.0
40.382851 -13.2136 74.998497 0.0
45.643051 -11.1637 90.219398 0.0
56.95475 -8.53 109.8992 0.0
-41.490028 16.906826 -1.2761 3.0
31.721066 -11.390334 55.908752 0.0
21.929836 -1.607875 3.923188 0.0
64.008247 -5.9793 120.3466 0.0
18.889366 0.512025 -30.156418 0.0
26.798 -5.32815 35.580498 0.0
-64.694153 7.715 4.1428 3.0
51.327003 -9.73275 102.07875 0.0
-21.397072 12.122134 -8.401889 3.0
19.507351 2.501967 -28.899233 0.0
16.394726 4.654223 -46.386791 0.0
37.890179 -13.709345 69.614326 0.0
-1.136131 5.256813 -21.584259 3.0
-21.592499 17.874699 -7.15434 3.0
16.082251 2.7605 -54.7789 3.0
21.455917 -4.44785 14.703866 0.0
-35.295383 10.973801 1.347233 3.0
-47.431065 11.905065 3.364724 3.0
17.412376 2.1125 -48.43795 0.0
45.443512 -18.087036 81.815674 0.0
32.797852 -15.4606 -78.755997 2.0
51.950401 -10.94935 99.168701 0.0
54.536152 -8.7465 112.0744 0.0
16.785749 2.0165 -44.989399 0.0
16.10535 -0.8271 -3.5225 0.0
42.549065 -11.406994 81.886902 0.0
15.99085 3.9983 -47.4781 0.0
17.671949 -4.46645 17.543999 0.0
27.801315 -10.917699 -85.424782 2.0
-63.841251 7.0665 7.9618 3.0
55.923862 -14.400299 101.54615 0.0
34.258102 -15.090651 62.060501 0.0
16.10985 4.3485 -49.879002 1.0
10.8467 9.329534 -41.202583 3.0
30.414595 -11.874557 53.792545 0.0
19.88905 4.2265 -82.856094 1.0
19.71175 7.471675 -128.50882 1.0
14.303818 1.340178 -8.637912 0.0
8.15445 6.7391 -42.466301 3.0
24.833717 -6.177067 -89.693634 2.0
23.897511 -4.52448 21.908941 0.0
-31.394676 12.058525 -1.660287 3.0
26.926588 -1.161775 -97.076141 2.0
15.753675 3.683775 -30.715326 0.0
13.851418 6.66265 -49.318783 3.0
-46.423874 11.389453 4.661342 3.0
31.323324 -4.9129 60.347912 0.0
14.48715 6.9533 -49.716801 3.0
-13.286409 6.409688 -10.878174 3.0
19.148094 7.041015 -75.351837 1.0
4.85125 10.3813 -32.564552 3.0
23.600191 -5.68515 25.314569 0.0
19.430584 2.9062 -27.539635 0.0
29.161934 -9.38225 -89.633224 2.0
38.371002 -12.860849 70.872299 0.0
53.343849 -8.939 111.2585 0.0
38.01355 -9.9811 76.433701 0.0
23.435017 1.104158 22.619324 0.0
-4.382327 6.7232 -20.8939 3.0
12.93365 -1.0169 7.2868 0.0
27.709238 -0.905312 38.133141 0.0
20.109749 3.95485 -67.594101 1.0
-60.737701 7.354999 5.11715 3.0
22.703161 2.150592 21.366661 0.0
22.533775 0.653975 11.668725 0.0
22.513575 -12.892358 42.121243 0.0
31.288183 -12.7123 55.956329 0.0
19.821449 -9.0041 30.159201 0.0
20.289951 7.93526 -95.091721 1.0
10.945087 3.648474 -44.332867 3.0
43.182022 -13.326876 80.284401 0.0
36.213051 -12.29505 66.309555 0.0
20.3421 -3.228275 3.96425 0.0
-0.39475 12.606842 -24.707817 3.0
31.413151 -5.928 56.4403 0.0
22.600859 -0.344467 9.646142 0.0
17.486525 3.9726 -0.882625 0.0
19.099016 8.717133 -102.9226 1.0
16.859749 6.211 -73.825249 1.0
36.614723 -9.34995 74.371849 0.0
0.98205 12.8125 -26.497499 3.0
21.711748 -4.72515 16.509674 0.0
16.305681 -3.101033 8.699634 0.0
-36.35289 14.092659 -0.825299 3.0
16.704918 4.798491 -39.678932 0.0
-13.856549 7.968 -11.846799 3.0
17.6619 3.807267 -9.802783 0.0
-14.3363 5.7447 -7.6942 3.0
27.673401 -4.81965 -93.6017 2.0
25.198727 -8.89645 37.798901 0.0
13.51505 0.5201 2.6756 0.0
30.437199 -3.635183 63.119553 0.0
19.613083 3.68665 -60.150566 1.0
33.10585 -4.9693 -96.096199 2.0
4.604527 4.35992 -32.640434 3.0
30.062599 -4.72663 -94.4263 2.0
18.368732 -5.014233 12.230383 0.0
16.43775 -4.5052 11.2065 0.0
20.01545 4.3752 -70.412827 1.0
21.931658 -9.475884 33.594688 0.0
32.862915 -11.676617 -88.628532 2.0
-38.937851 11.28035 3.2791 3.0
19.33465 7.7637 -84.230499 1.0
4.591691 8.576026 -34.125507 3.0
19.61565 2.6224 -22.121651 0.0
71.390549 -1.2188 133.19881 0.0
18.659548 4.076 6.7427 0.0
15.889679 3.680557 -10.882971 0.0
-4.7463 14.32495 -20.117199 3.0
11.83277 8.73864 -43.118858 3.0
29.20315 1.3075 45.32275 0.0
28.937851 -0.12785 43.826401 0.0
16.884775 4.065617 -17.407736 0.0
20.759575 4.6217 -91.022377 1.0
16.638874 0.817961 -31.166641 0.0
41.682652 -11.1528 92.264503 0.0
21.904413 9.165653 -120.62306 1.0
18.069469 5.305741 -49.809517 1.0
14.407687 -1.0883 6.389286 0.0
-72.388298 3.84775 6.82495 3.0
55.427959 -9.329033 106.16525 0.0
20.386778 4.436022 -78.352356 1.0
46.607201 -12.871174 87.822395 0.0
16.611517 -5.939533 19.920918 0.0
19.700048 0.639471 -28.135359 0.0
-29.389185 16.098825 -4.820995 3.0
19.492834 3.234983 -7.9118 0.0
24.46575 -14.090867 46.671967 0.0
-50.444649 11.8138 3.0152 3.0
18.91725 6.045433 -99.068062 1.0
20.700701 -9.1606 31.35215 0.0
-68.787506 5.28205 5.8818 3.0
39.68045 -12.5371 74.040802 0.0
22.85635 6.9271 -106.05295 1.0
51.469498 -10.913349 98.667503 0.0
-7.312467 7.387398 -18.393932 3.0
-22.396959 11.872412 -7.718247 3.0
16.88085 -4.7276 16.36195 0.0
-0.3748 10.684234 -26.73435 3.0
-42.52705 11.0051 4.8154 3.0
-31.649651 15.5687 -3.8038 3.0
27.078299 -4.914325 36.873749 0.0
16.410324 5.68995 -63.42215 1.0
18.375017 -2.192389 -5.952617 0.0
19.348949 9.15325 -111.61258 1.0
13.865216 -2.150967 7.041967 0.0
21.155273 5.607433 -98.361267 1.0
-56.8339 11.5021 2.5084 3.0
-43.714752 10.06485 6.7468 3.0
23.10895 -11.735915 40.526314 0.0
-18.624786 9.273746 -8.320604 3.0
-5.05645 5.91 -19.487301 3.0
33.99485 -10.732 -91.4795 2.0
22.845976 -2.067462 11.37765 0.0
48.296753 -10.745999 96.325439 0.0
-28.112783 10.724 -2.8367 3.0
19.47525 2.6694 -54.268578 1.0
15.913108 1.649633 -55.350254 3.0
-32.867851 19.070299 -4.7072 3.0
23.089951 8.32115 -131.42758 1.0
19.392052 2.901625 -23.421852 0.0
20.253166 2.081883 -11.325816 0.0
28.047846 1.062825 37.864754 0.0
16.943649 4.857 -74.909698 1.0
23.606215 -4.271815 17.699167 0.0
31.463617 -5.5114 59.100098 0.0
53.30685 -9.96575 102.74715 0.0
-20.095493 7.91485 -4.363588 3.0
18.397675 1.718475 -43.90078 0.0
22.355499 6.66825 -107.62144 1.0
30.283924 -14.707586 -82.134811 2.0
22.011717 -11.445933 38.538136 0.0
-19.099125 15.843575 -8.61585 3.0
47.897995 -16.378056 86.664658 0.0
25.37385 -11.5595 43.681099 0.0
62.332973 -8.634809 114.42467 0.0
15.6578 -2.5531 7.3795 0.0
28.408699 -10.083767 -87.639481 2.0
33.822304 -16.299324 -78.699203 2.0
25.871593 -9.19721 40.064102 0.0
5.645624 9.881989 -33.588154 3.0
-34.01635 7.1575 3.1975 3.0
-29.824951 12.630501 -3.299975 3.0
38.857533 -18.381065 71.641655 0.0
20.95055 10.2205 -131.20551 1.0
25.173683 -0.869267 -97.839844 2.0
19.146095 3.588425 -36.633095 0.0
-24.408649 14.2504 -6.8078 3.0
46.012249 -14.9605 84.153099 0.0
16.274401 -2.73525 7.1054 0.0
26.576925 2.10125 34.173424 0.0
-58.924248 11.04755 2.78845 3.0
-24.405539 11.360881 -5.889322 3.0
50.51395 -9.2549 106.0191 0.0
35.864849 -17.9722 -79.849602 2.0
-39.889183 18.2819 -1.780034 3.0
16.324951 4.3959 -64.9114 1.0
32.037048 -9.30785 54.651947 0.0
17.625456 2.310311 -56.873035 1.0
14.5063 -1.71905 1.69615 0.0
-10.61315 16.183048 -14.739799 3.0
36.458801 -13.825951 -90.14225 2.0
2.73565 8.076366 -33.0541 3.0
17.250549 4.3608 4.027 0.0
-50.913403 13.292717 1.5415 3.0
30.615143 -9.602955 -89.593231 2.0
19.157749 3.4636 -0.13845 0.0
7.407949 3.652103 -37.522282 3.0
18.687752 -0.848037 -15.601667 0.0
54.626488 -13.096562 99.883163 0.0
17.257099 -9.019649 39.719101 0.0
17.310816 1.966367 -47.028767 0.0
49.681499 -17.353226 90.081299 0.0
37.01495 -10.316 70.054497 0.0
14.05325 -1.8916 4.2666 0.0
27.635349 -6.12935 39.1833 0.0
17.591692 3.845071 -8.9297 0.0
14.761666 1.12655 -14.4357 0.0
16.613974 5.82307 -59.392223 1.0
-67.602249 5.313686 6.09353 3.0
23.430779 10.34346 -135.9613 1.0
16.609907 5.933077 -69.116905 1.0
-11.90735 6.57559 -12.900727 3.0
20.496651 -2.70914 1.43862 0.0
15.1667 0.46625 -17.591749 0.0
-34.8256 8.6642 3.0412 3.0
19.29925 6.2382 -113.0229 1.0
30.361401 -13.967051 -79.4533 2.0
35.393402 -12.149475 -91.398399 2.0
23.510691 -3.71782 -92.667282 2.0
-35.528152 8.493999 3.6184 3.0
26.1103 -3.61675 -94.8153 2.0
27.340401 1.63075 -99.371857 2.0
38.96405 -10.2053 77.870201 0.0
25.45155 -7.395075 34.857597 0.0
-42.8377 14.3674 -0.0317 3.0
28.094172 -16.872799 55.311535 0.0
18.11945 8.1816 -105.8709 1.0
17.263651 2.5039 -50.826 1.0
32.101307 -13.12882 -86.109642 2.0
18.12125 6.099125 -59.440075 1.0
-59.330917 12.6923 2.4922 3.0
20.9196 8.096766 -105.38811 1.0
31.28933 -11.071871 54.845558 0.0
35.068249 -16.847 -78.960999 2.0
64.94735 -5.5505 121.5967 0.0
30.67605 -3.81735 60.662903 0.0
14.077875 1.82678 -4.26852 0.0
25.87285 -2.60515 30.825043 0.0
50.171223 -9.257925 106.97237 0.0
-17.587563 13.857176 -10.694063 3.0
19.94355 7.45565 -131.84225 1.0
14.38045 2.5304 -14.861 0.0
22.118462 0.61045 6.136012 0.0
-9.033684 8.137684 -17.155632 3.0
24.472401 3.62445 30.374149 0.0
20.425083 4.904033 -79.601471 1.0
17.8822 6.1439 -92.918655 1.0
19.356949 6.09925 -66.693001 1.0
-29.297344 8.400357 -0.878982 3.0
-33.034248 13.993 -2.1699 3.0
19.626589 -2.804167 -0.081193 0.0
31.875067 -15.932083 -82.07502 2.0
38.053749 -9.8229 79.801903 0.0
30.395639 -11.38478 -87.129089 2.0
-63.068027 6.43585 6.36195 3.0
23.396082 -1.657322 15.074318 0.0
19.62661 6.141289 -70.139015 1.0
23.223351 -5.7757 -87.740303 2.0
15.90055 1.4725 -32.330566 0.0
23.852037 2.852112 -101.8289 2.0
-39.894253 15.889767 -0.8906 3.0
17.617218 0.368158 -28.095577 0.0
15.33591 -6.1366 23.728439 0.0
59.842522 -10.091833 109.88509 0.0
17.601101 7.287875 -83.880867 1.0
37.945 -9.751 81.784401 0.0
23.81505 -7.0063 29.955099 0.0
14.75595 2.527 -12.328 0.0
61.558651 -7.7084 114.6607 0.0
17.692616 4.39481 -23.596489 0.0
19.480751 2.86655 -53.503548 1.0
29.718876 -12.278386 -85.502113 2.0
57.992649 -8.1379 111.54 0.0
36.532951 -9.217 77.110603 0.0
25.96015 -15.6694 50.552002 0.0
24.097 -4.69195 23.26265 0.0
21.707699 2.5642 -102.44925 2.0
29.1905 -5.8737 46.070251 0.0
24.303354 -2.397105 21.925365 0.0
19.628317 0.859233 -32.655151 0.0
20.748928 -0.68144 -9.663179 0.0
22.051701 11.4531 -133.96005 1.0
24.492517 -6.709167 31.024666 0.0
28.822451 -3.9003 44.26255 0.0
22.236549 6.365 -114.3158 1.0
20.931725 5.9004 -91.575676 1.0
-21.711649 14.108001 -8.077001 3.0
17.8871 -9.806425 31.8687 0.0
20.184401 0.626375 -15.167324 0.0
21.903431 -0.12034 3.87526 0.0
18.61795 3.361867 -68.737122 1.0
34.154858 -10.177143 -92.154419 2.0
19.286049 9.23715 -114.7844 1.0
22.654465 6.729186 -136.64998 1.0
23.00465 0.6195 14.9486 0.0
20.135075 -1.1584 -11.610174 0.0
19.907618 -0.681383 -16.27685 0.0
21.664124 -4.334817 -88.88382 2.0
21.6605 10.0067 -133.0385 1.0
19.862373 9.39805 -132.8304 1.0
16.908501 -0.1984 -22.86105 0.0
32.675919 -9.58141 56.923038 0.0
23.852674 -6.194825 27.699902 0.0
-12.99015 14.7279 -13.307 3.0
25.216599 -3.1019 27.694412 0.0
29.54755 -0.9472 55.676899 0.0
15.19805 -1.56285 3.88435 0.0
-9.12509 9.2831 -17.955399 3.0
17.713968 3.69482 -68.888161 1.0
56.381649 -8.4719 116.5401 0.0
17.657557 4.960163 -39.352341 0.0
43.379425 -18.326801 78.383499 0.0
20.095566 1.38215 -15.1462 0.0
21.624594 -6.630789 24.071123 0.0
13.23015 0.6929 1.5108 0.0
28.829824 -4.889675 44.377701 0.0
21.901142 6.603205 -133.13899 1.0
27.946548 -2.79 -96.019951 2.0
-34.117649 14.6259 -1.9908 3.0
48.474751 -11.7671 93.182899 0.0
17.4429 4.907675 -78.173981 1.0
25.185743 -8.314281 -86.13485 2.0
-60.528648 9.862101 3.23825 3.0
35.18985 -8.72 70.4729 0.0
15.88735 5.2385 -59.087299 1.0
41.077969 -10.916221 80.858322 0.0
22.6227 -7.70215 29.556099 0.0
15.362016 -2.127845 -0.598044 0.0
33.025749 -7.1621 74.538902 0.0
31.180466 -5.405158 56.089001 0.0
23.270149 6.8101 -135.9454 1.0
-57.134354 9.672094 3.633019 3.0
20.867149 9.806 -120.83445 1.0
16.094484 -3.9362 12.570733 0.0
18.368683 4.731033 -41.517399 0.0
-16.876917 16.269766 -9.332534 3.0
1.13295 3.69595 -24.68515 3.0
16.124201 -1.267625 -9.88345 0.0
14.55265 9.0107 -47.382198 3.0
65.627251 -5.1533 122.1243 0.0
45.916798 -12.588695 86.870262 0.0
18.519548 8.5188 -99.523735 1.0
21.02935 -10.0828 34.385799 0.0
-36.742817 9.066466 4.167467 3.0
17.39105 5.05305 -30.306099 0.0
27.475676 -17.343725 54.904427 0.0
-22.253883 6.957966 -2.080133 3.0
24.704174 -5.63895 28.592777 0.0
-22.389481 14.63921 -7.584669 3.0
19.097692 -10.915757 36.07877 0.0
-29.347351 13.213449 -3.84775 3.0
18.32485 -2.0629 5.0381 0.0
59.134438 -11.670143 107.88635 0.0
20.4718 5.12085 -80.874847 1.0
31.270243 -12.162707 -86.649658 2.0
19.485451 1.9363 -47.744999 0.0
22.173374 -0.67915 5.733175 0.0
17.303917 -4.161334 7.4891 0.0
19.636383 2.348967 -38.390083 0.0
-57.370083 10.261566 3.267433 3.0
19.535213 4.093607 -55.37941 1.0
30.86475 -4.4343 67.224304 0.0
21.32765 4.134137 22.409611 0.0
-15.36055 16.6057 -9.6906 3.0
-6.24535 6.5795 -18.6612 3.0
40.185799 -14.89785 73.874298 0.0
32.628849 -18.1957 62.205898 0.0
29.481588 -0.31928 48.280441 0.0
-1.65175 4.8442 -19.687599 3.0
-0.44195 7.5614 -28.946301 3.0
15.1596 0.2444 -15.4536 0.0
17.568901 5.1617 -81.573853 1.0
14.30192 2.079267 -1.392246 0.0
16.909575 3.5996 -61.409851 1.0
-20.652187 10.841995 -8.38143 3.0
-13.3579 10.916 -14.593699 3.0
16.923666 4.798667 -37.102852 0.0
19.364 4.91645 -59.905998 1.0
18.702549 3.1039 -65.104752 1.0
19.342999 8.1845 -89.870453 1.0
-34.471493 18.492615 -3.761129 3.0
16.2864 -4.74405 13.14135 0.0
-50.159977 12.900878 1.820519 3.0
15.97275 4.3113 -60.837799 1.0
17.386402 4.124771 -16.927734 0.0
27.233749 -10.2057 45.097 0.0
26.596001 -3.88475 33.877975 0.0
-21.118462 14.397038 -8.333359 3.0
4.648364 9.438709 -33.091537 3.0
19.893047 4.059997 14.392813 0.0
22.08955 5.8989 -113.4921 1.0
47.444603 -18.06225 85.60685 0.0
-10.356155 11.065145 -17.097794 3.0
-65.730217 8.594791 3.894595 3.0
11.654384 6.311512 -48.092331 3.0
-14.05915 16.275 -11.0167 3.0
19.541649 2.3033 -21.5301 0.0
4.392238 5.606766 -33.709595 3.0
14.884337 2.075063 -15.36455 0.0
60.554352 -7.0124 116.5505 0.0
21.36315 3.3945 18.513599 0.0
-18.093174 8.201092 -7.073517 3.0
31.788349 -6.926 56.570702 0.0
25.9681 2.640733 33.084236 0.0
20.916483 1.2938 -3.853333 0.0
-9.906346 13.618209 -16.648104 3.0
21.68725 10.0578 -131.4182 1.0
12.599625 6.109225 -48.844902 3.0
43.666683 -17.089582 78.802719 0.0
17.507925 6.491275 -66.922348 1.0
12.124821 7.146496 -45.854755 3.0
25.177084 -2.3917 27.380768 0.0
46.097878 -12.102949 88.149178 0.0
19.697916 -0.535867 -17.850832 0.0
13.732349 8.253824 -46.507774 3.0
-16.0755 6.9595 -6.63395 3.0
-28.425699 12.292241 -3.898026 3.0
17.90995 4.3783 10.1001 0.0
25.587717 -6.393942 33.077808 0.0
-38.816734 17.91 -1.68855 3.0
33.048351 -6.9945 75.906502 0.0
17.915249 2.74005 -56.145798 1.0
70.676949 -2.371061 131.34497 0.0
32.56245 -13.908083 -85.411911 2.0
23.322138 0.320344 16.928379 0.0
14.908251 3.09088 -11.114019 0.0
30.288782 -5.360947 51.159878 0.0
19.917061 0.379456 -21.581022 0.0
58.433098 -11.906203 106.61853 0.0
52.524418 -9.6773 103.105 0.0
13.746776 -2.882825 11.2931 0.0
19.3594 3.639175 -51.165478 1.0
24.958351 -4.7167 26.4818 0.0
26.380966 -7.687798 -89.13739 2.0
30.294916 -2.889167 57.694469 0.0
21.880526 5.5732 -107.1068 1.0
-30.119452 9.329984 -0.712667 3.0
19.810799 2.8947 -47.330048 0.0
20.339283 6.760233 -126.97867 1.0
22.327549 -3.03835 6.3836 0.0
13.60765 1.61525 -48.918301 3.0
-52.94133 9.634829 6.158422 3.0
27.548996 -2.872535 38.336651 0.0
19.123749 9.13745 -116.0358 1.0
27.610451 -12.35225 48.723049 0.0
-23.281906 11.603738 -7.11661 3.0
19.40716 4.08103 12.291981 0.0
5.605106 8.570646 -35.354122 3.0
33.328316 -7.907751 62.428715 0.0
-10.835312 13.589712 -15.866375 3.0
15.904924 -3.7959 7.9412 0.0
48.832062 -15.349606 89.07486 0.0
-54.088699 9.270525 6.517875 3.0
30.948711 -15.371662 -81.821533 2.0
-35.46656 13.352201 -0.55128 3.0
50.470127 -11.589675 96.3069 0.0
-1.429625 8.908026 -27.4216 3.0
23.17585 -8.3249 32.106552 0.0
-32.183567 9.319057 0.698421 3.0
-57.22155 12.5798 1.9939 3.0
22.374453 9.717893 -132.31686 1.0
38.557652 -11.59 71.758904 0.0
19.625351 2.5869 -51.012402 1.0
22.1394 0.609 5.1596 0.0
1.842327 7.60777 -31.397644 3.0
19.7444 3.93615 12.895975 0.0
41.04015 -11.2113 92.018097 0.0
18.865513 4.188066 11.091166 0.0
12.943391 8.086567 -45.406273 3.0
3.837737 4.634085 -31.617764 3.0
23.613367 5.664483 -104.34557 2.0
27.37545 -13.8912 50.067551 0.0
-14.431217 14.353567 -12.559383 3.0
25.866049 0.68445 31.843201 0.0
20.72155 4.3377 -88.672096 1.0
19.152134 3.306383 -68.178017 1.0
36.618099 -10.272975 68.647171 0.0
53.13755 -8.9536 110.566 0.0
36.976749 -9.2749 85.867599 0.0
53.75375 -8.8716 109.3212 0.0
20.785049 7.58 -97.180099 1.0
29.456402 -3.3155 47.306149 0.0
8.8463 6.67665 -42.44965 3.0
18.61585 6.8083 -70.300797 1.0
-8.2913 4.33095 -15.305099 3.0
5.500526 9.10405 -34.498573 3.0
4.422656 3.630297 -31.738579 3.0
15.628226 3.591669 -22.676779 0.0
-34.716499 7.2582 3.77235 3.0
22.282951 0.86825 8.958 0.0
31.237551 -6.1401 55.383701 0.0
16.676601 1.193475 -34.0984 0.0
18.56815 7.7321 -79.557693 1.0
67.216751 -5.7961 123.9178 0.0
-28.344299 14.26675 -4.4888 3.0
20.678551 4.4315 18.9053 0.0
56.824997 -10.5206 105.51994 0.0
29.811401 -17.313251 58.212997 0.0
29.698816 -1.8972 -96.669037 2.0
19.881552 4.090133 -81.524834 1.0
20.662849 4.26985 -87.584 1.0
19.527901 2.7022 -24.35005 0.0
19.051149 5.8978 -97.6716 1.0
14.80735 -1.3639 -1.4168 0.0
33.687416 -7.428666 69.412277 0.0
-26.362343 18.328833 -6.571575 3.0
24.597151 -8.395783 -84.614746 2.0
17.93697 4.661 -31.709558 0.0
-27.718349 7.5019 -1.2432 3.0
22.187099 6.0979 -118.1713 1.0
21.318851 11.2064 -135.31415 1.0
20.45365 0.9006 -10.899151 0.0
-11.13925 14.6759 -14.9454 3.0
22.25205 10.08965 -134.14905 1.0
51.361828 -11.631574 97.34333 0.0
20.707199 9.88205 -122.0503 1.0
66.643501 -5.6848 122.69855 0.0
22.807983 7.324 -124.59402 1.0
16.843876 3.084075 -52.148178 1.0
31.104925 -8.893126 -90.612579 2.0
29.675301 -5.5119 48.283203 0.0
18.58905 -0.9842 1.4973 0.0
34.355202 -8.5191 65.288101 0.0
38.601551 -10.1039 87.017403 0.0
25.910065 -11.927967 45.195633 0.0
47.636711 -9.932938 100.59183 0.0
6.480184 2.693983 -35.292267 3.0
38.68985 -9.964434 84.948868 0.0
13.40205 0.7199 4.0262 0.0
22.898933 -4.31445 -91.055695 2.0
2.521237 4.613187 -28.871082 3.0
21.09025 4.9432 -96.147903 1.0
19.87755 9.1607 -110.4727 1.0
33.008148 -6.8619 67.052498 0.0
20.636801 5.085625 -85.310806 1.0
19.188284 3.418333 -18.958834 0.0
18.813749 8.4377 -95.754501 1.0
20.667208 8.612154 -107.35162 1.0
20.126232 2.950133 2.184933 0.0
17.89365 4.5791 -29.697384 0.0
44.355148 -10.8714 96.367401 0.0
-6.366425 7.134509 -19.159451 3.0
19.908417 -0.724483 -98.612549 2.0
18.388317 4.908258 -45.098522 0.0
19.413708 4.097117 -56.710793 1.0
33.126999 -7.169925 65.111427 0.0
22.686852 10.771601 -136.11554 1.0
23.194483 7.683667 -132.0945 1.0
16.933491 6.170742 -64.3964 1.0
16.095118 -0.389492 -18.072617 0.0
32.345566 -8.932617 55.860451 0.0
27.304249 -3.9483 37.2864 0.0
24.816526 -4.090084 25.60729 0.0
35.181126 -8.545551 71.927856 0.0
20.0781 7.53535 -86.932327 1.0
-1.689083 9.8388 -25.944767 3.0
20.269775 9.044075 -108.58948 1.0
23.045448 8.8757 -130.10934 1.0
20.897882 5.21005 -107.83728 1.0
17.068459 -1.66765 -9.884116 0.0
-30.285683 11.401608 -1.833625 3.0
14.77775 4.0439 -52.862499 3.0
37.96125 -9.8146 84.479652 0.0
-31.277084 11.459666 -1.3248 3.0
67.871155 -2.72215 130.15575 0.0
19.692883 3.397838 -63.411068 1.0
-43.663284 11.62635 4.188416 3.0
19.842051 5.2816 -64.968903 1.0
2.651283 9.151401 -31.171967 3.0
26.78425 0.9425 34.213902 0.0
17.490549 -4.5078 9.3158 0.0
24.630642 -4.410067 22.856308 0.0
16.160049 8.1274 -49.939098 3.0
31.568659 -3.728785 -95.745438 2.0
19.168098 -2.025825 -5.8403 0.0
69.289452 -2.9442 128.97501 0.0
35.142548 -16.297451 64.277901 0.0
18.880402 -1.59175 -9.59745 0.0
24.173527 -0.110208 23.273876 0.0
29.482399 -0.07285 50.71175 0.0
19.498112 1.70566 -36.480263 0.0
19.7369 3.1397 -66.851151 1.0
19.745501 4.2075 -84.614799 1.0
19.873249 2.3837 -41.992199 0.0
46.368652 -9.782275 100.52823 0.0
-6.902425 8.858875 -20.29925 3.0
24.601425 -3.35855 24.661125 0.0
27.899851 2.734133 -100.01363 2.0
17.706148 -5.047467 18.974199 0.0
66.284279 -6.125338 121.80344 0.0
25.373318 3.72642 -101.81946 2.0
16.403385 3.9217 -15.906633 0.0
51.023548 -9.5225 103.6254 0.0
-23.67215 15.3122 -6.96285 3.0
15.167233 0.652608 -18.414482 0.0
20.89205 10.0104 -134.26089 1.0
16.871218 4.2645 -66.727135 1.0
18.432949 -0.44105 -19.605915 0.0
-66.362282 7.100633 4.346162 3.0
30.27405 -7.9865 -91.183151 2.0
19.00205 4.6265 -51.986401 1.0
53.11412 -14.662149 96.605103 0.0
17.87335 5.4014 -86.279976 1.0
-26.097351 17.027967 -6.4996 3.0
5.45695 10.8319 -32.4282 3.0
19.76165 3.2765 -57.6745 1.0
17.474649 -5.74035 21.578548 0.0
21.043751 10.041349 -126.06821 1.0
39.0075 -13.118099 72.174751 0.0
36.436718 -13.304566 66.565269 0.0
17.912376 4.470408 -26.612942 0.0
-22.173828 9.323841 -5.594255 3.0
34.692902 -8.1957 73.703201 0.0
-55.073723 13.93925 1.192125 3.0
8.034695 5.0734 -39.728657 3.0
21.616001 6.40395 -126.06812 1.0
-38.725052 13.04325 0.8724 3.0
27.584301 -5.44425 39.216972 0.0
6.88279 3.1103 -36.2882 3.0
14.703266 -3.175367 12.1196 0.0
18.71665 4.44346 -38.93594 0.0
35.650051 -8.8379 73.308067 0.0
20.095968 -5.51938 16.52562 0.0
-40.226402 8.60525 6.6058 3.0
18.130775 3.358575 -67.194176 1.0
20.708549 -0.0314 -12.7733 0.0
-28.111618 6.3792 -0.9272 3.0
-36.092903 11.595224 1.204825 3.0
-4.42765 9.357834 -23.170668 3.0
0.300414 12.372997 -25.838194 3.0
31.199717 -4.609627 61.560516 0.0
18.28195 5.90155 -55.715549 1.0
-27.641102 9.394913 -2.331044 3.0
17.164234 6.319141 -54.829475 1.0
60.771873 -10.573215 110.73244 0.0
18.343328 -7.424583 24.901184 0.0
18.913401 3.91035 -31.104351 0.0
-15.407926 11.095412 -12.888313 3.0
20.415699 4.3882 -80.62912 1.0
-43.399197 13.335784 1.521975 3.0
16.489901 4.519233 -34.52142 0.0
22.369349 11.393933 -134.68269 1.0
15.07785 2.7064 -52.7038 3.0
16.389324 4.67075 -47.840099 1.0
41.687752 -10.70715 88.544601 0.0
18.900818 2.548467 -55.287266 1.0
17.110916 0.303467 -27.480902 0.0
20.883417 5.0961 -91.853233 1.0
19.08905 3.908285 -45.253601 0.0
50.167984 -16.395016 90.905487 0.0
14.634033 -5.897917 22.710733 0.0
-3.427379 6.884029 -22.476658 3.0
37.289875 -9.610649 77.075272 0.0
24.048334 -2.368143 20.150072 0.0
27.70405 -7.10495 -91.622101 2.0
-47.599659 10.961964 5.114832 3.0
16.7087 -5.50175 17.376249 0.0
43.517673 -15.9263 79.082703 0.0
-11.893184 14.089801 -14.701066 3.0
57.345989 -9.327034 107.8696 0.0
18.083982 -4.1714 7.280434 0.0
15.295184 -3.945567 10.887334 0.0
31.633362 -13.622139 -84.953705 2.0
40.788685 -15.3911 74.686615 0.0
29.478901 -2.6728 46.69355 0.0
24.575384 0.84115 27.882919 0.0
22.955782 0.61215 16.263988 0.0
22.086617 -5.0164 17.6726 0.0
49.140156 -13.401831 91.657494 0.0
-3.968917 5.0455 -18.5702 3.0
18.19142 5.266849 -49.134327 1.0
31.98315 -6.6041 59.521301 0.0
14.44465 4.1427 -52.056702 3.0
20.611549 6.6703 -81.139198 1.0
28.175999 -14.626625 52.563347 0.0
37.521851 -15.8826 68.553001 0.0
-56.976749 7.9946 8.9059 3.0
18.868351 -4.40015 8.881425 0.0
31.69845 -15.84245 -80.812752 2.0
21.309834 3.90295 21.072599 0.0
-40.845226 14.898125 -0.279875 3.0
16.695702 -5.77585 19.07655 0.0
16.899151 4.169325 -66.070694 1.0
-1.59901 5.892476 -22.896154 3.0
19.681942 2.596554 -16.908308 0.0
-54.561024 8.805041 8.634767 3.0
30.703751 -10.941801 -87.951599 2.0
-25.642437 7.858979 -2.366506 3.0
12.87005 -0.32265 6.362725 0.0
-38.093624 16.41325 -1.80535 3.0
-9.583555 7.33642 -15.850251 3.0
17.628099 4.705025 -21.455975 0.0
23.337049 7.62545 -135.1774 1.0
11.38375 5.1528 -47.9804 3.0
17.36355 5.4532 -53.711399 1.0
37.32185 -9.66935 75.469254 0.0
-15.659129 12.47744 -12.47876 3.0
21.151672 3.395131 16.643707 0.0
25.874401 -8.796567 39.080116 0.0
36.08345 -17.301733 66.069504 0.0
20.783251 -3.5822 6.7516 0.0
20.63125 4.7076 -92.318199 1.0
-10.831051 11.579525 -16.669201 3.0
46.648399 -18.3389 84.082199 0.0
-24.834301 16.1122 -6.646863 3.0
18.8598 2.0154 -48.175652 0.0
20.94755 2.852 -103.3114 2.0
24.355801 -13.222675 44.885826 0.0
19.308861 3.7357 6.4916 0.0
-50.520481 11.250401 3.903483 3.0
49.847649 -14.7405 91.298599 0.0
19.143791 6.636079 -71.424843 1.0
7.51695 7.289133 -40.274799 3.0
-17.8937 11.73735 -10.9551 3.0
15.357676 -1.60645 -3.683875 0.0
27.0604 -4.3332 36.063599 0.0
22.991451 7.78265 -129.1503 1.0
20.26585 2.8016 -13.6098 0.0
-17.8932 15.7171 -9.2984 3.0
29.228325 -1.298388 45.358124 0.0
-27.353573 12.622831 -4.6299 3.0
16.690968 5.792499 -58.076523 1.0
-69.564049 7.4073 3.9863 3.0
27.76545 -11.5723 48.285801 0.0
50.040451 -9.5094 104.0884 0.0
33.41325 -7.85395 63.324699 0.0
22.10981 -1.083133 -96.614594 2.0
-6.081909 9.122926 -21.424997 3.0
19.48225 1.4561 -41.553902 0.0
-4.70975 12.4789 -21.358051 3.0
-39.623371 14.859047 -0.433044 3.0
-41.11795 8.3517 7.3841 3.0
15.589075 1.367825 -28.0219 0.0
20.723576 2.49445 4.7108 0.0
34.915581 -17.817406 -81.106331 2.0
19.409651 4.4631 -48.838501 1.0
32.712502 -16.711552 60.937702 0.0
20.73525 -5.0 15.5001 0.0
23.361401 -5.51525 24.093849 0.0
21.2742 5.19305 -100.77361 1.0
-43.675549 14.923526 -0.2843 3.0
17.839149 5.695775 -88.378372 1.0
64.371323 -6.698375 119.35277 0.0
23.097149 3.710175 26.921326 0.0
42.077671 -13.412654 78.127533 0.0
19.349226 -1.85408 -6.833362 0.0
56.342449 -8.402 110.4441 0.0
-32.369911 7.33629 1.53518 3.0
50.882324 -9.18795 108.05143 0.0
-32.860249 6.3331 2.1705 3.0
34.925049 -8.3758 76.194397 0.0
-44.899899 10.21895 6.7177 3.0
17.632545 6.313694 -63.55957 1.0
26.6961 -10.1402 44.018402 0.0
72.434052 0.14655 135.4549 0.0
-41.124283 9.594 6.089967 3.0
-20.372969 9.899525 -7.606846 3.0
31.352249 -5.52088 57.516518 0.0
14.3978 2.353342 -4.607525 0.0
22.99575 7.2531 -131.11211 1.0
17.807051 6.9835 -74.643097 1.0
-46.801102 15.6848 -0.1915 3.0
22.971025 8.383499 -130.79205 1.0
-20.17425 12.9072 -9.1808 3.0
56.4076 -13.953 102.53485 0.0
-13.503338 5.8957 -9.328688 3.0
-12.437992 6.296462 -11.886887 3.0
13.91925 6.0331 -51.674 3.0
1.720717 11.326068 -28.2654 3.0
41.796799 -14.0909 77.096603 0.0
26.909233 -11.370117 46.098171 0.0
30.48955 -6.7519 51.197201 0.0
29.652634 -7.9304 46.886948 0.0
48.590752 -10.04795 100.60291 0.0
26.665298 -15.0595 50.48975 0.0
21.1903 7.12895 -92.391296 1.0
-19.410048 8.36591 -6.079624 3.0
46.670547 -11.936801 89.704498 0.0
30.060848 -3.119375 51.2453 0.0
35.336716 -18.096691 65.4086 0.0
44.196819 -11.539829 85.377434 0.0
13.79415 0.0769 -1.17305 0.0
-47.11935 9.2825 8.8082 3.0
16.992849 6.5548 -81.316597 1.0
15.86465 2.6673 -42.9384 0.0
-57.845268 8.358625 5.314225 3.0
20.979849 5.099867 -94.710838 1.0
30.445812 -13.854925 -84.105644 2.0
29.364399 -6.91255 46.538399 0.0
-59.064976 8.170424 4.615875 3.0
14.6584 0.831125 -12.123775 0.0
-3.057958 10.614192 -24.206818 3.0
29.881918 -3.675328 -95.317848 2.0
-11.253217 7.943367 -14.638466 3.0
13.81345 1.5305 -3.0477 0.0
19.19515 3.7426 -38.1469 0.0
26.33235 -1.3893 -96.737801 2.0
24.141699 -1.10618 21.848555 0.0
20.33485 7.33 -90.05735 1.0
-9.5096 4.6998 -14.135275 3.0
21.172264 7.36841 -102.07261 1.0
32.95565 -7.7104 61.099033 0.0
20.225517 2.8733 0.546567 0.0
-34.632774 9.418378 2.1592 3.0
15.31265 2.6326 -34.178001 0.0
28.04545 -7.841425 42.625603 0.0
28.85865 2.0393 41.373501 0.0
-19.143847 14.397353 -9.450703 3.0
16.1064 3.7945 -4.70205 0.0
21.121458 0.306358 -3.3715 0.0
17.914499 6.161625 -58.343582 1.0
17.295362 4.511975 -24.719099 0.0
46.324627 -14.697861 84.875999 0.0
32.546326 -7.4284 -93.449951 2.0
19.649651 0.9977 -35.307098 0.0
28.41715 -12.105166 -84.664162 2.0
2.70375 11.342051 -29.135799 3.0
27.258751 -6.722 37.121803 0.0
18.407993 3.851808 0.901308 0.0
18.098969 6.58113 -65.692932 1.0
32.591938 -10.896361 -89.41288 2.0
42.887451 -11.295 95.087997 0.0
23.187813 -1.691463 13.8295 0.0
18.396503 1.59071 -42.407295 0.0
-11.306999 9.806499 -16.727551 3.0
-49.337887 11.155087 4.5692 3.0
16.50845 2.4769 -45.833099 0.0
7.01785 5.0462 -37.801201 3.0
31.88505 -3.2143 -96.183998 2.0
27.55545 0.45555 36.120148 0.0
19.954899 1.92895 -103.53415 2.0
22.7467 -3.11255 12.2449 0.0
26.803749 -3.9557 34.93285 0.0
19.068375 6.168475 -65.191528 1.0
18.293526 3.793237 -1.105325 0.0
18.19055 7.945 -53.804001 3.0
-72.940247 3.4712 5.894 3.0
8.332083 3.8437 -39.281509 3.0
20.287451 -3.538567 5.537366 0.0
21.20195 0.8104 -5.4893 0.0
44.960091 -11.872458 86.37619 0.0
23.25835 7.857175 -133.92841 1.0
18.8634 5.6503 -57.705101 1.0
19.406382 4.622283 -58.912701 1.0
-2.695606 6.312716 -22.17651 3.0
16.665051 3.10685 -50.865402 1.0
-6.714861 14.644202 -18.817062 3.0
30.624592 -4.085142 55.360352 0.0
16.163664 -7.171852 29.36204 0.0
-33.850273 8.555075 2.04715 3.0
25.201151 -16.402201 50.786301 0.0
19.273849 9.17945 -112.78225 1.0
16.56465 3.869025 -60.717697 1.0
27.432375 -4.312188 38.126472 0.0
19.20435 4.10605 14.5847 0.0
17.111 4.04985 -1.62775 0.0
23.14175 0.825837 19.066538 0.0
19.82865 9.320499 -113.76735 1.0
15.758117 1.510233 -35.0914 0.0
14.803499 2.8223 -3.6485 0.0
-12.91565 16.3559 -11.7359 3.0
19.518951 2.5115 -20.895901 0.0
56.549252 -9.4206 106.8819 0.0
23.276432 0.333633 17.875618 0.0
20.113811 2.509375 -9.491625 0.0
17.808399 -5.8623 24.022301 0.0
17.378317 6.29325 -62.85751 1.0
20.88245 6.9418 -89.264603 1.0
-2.087964 5.744343 -21.716772 3.0
17.723951 -2.412933 -4.7136 0.0
-0.293375 4.701475 -21.929476 3.0
0.08965 11.630406 -26.399366 3.0
41.108959 -15.101274 75.386276 0.0
-33.883423 12.28315 -0.376975 3.0
42.744949 -11.1645 93.141899 0.0
20.565216 2.09039 -4.379887 0.0
15.328683 -3.606567 8.5968 0.0
-3.9292 8.7107 -23.775051 3.0
17.70945 6.5775 -61.855499 1.0
14.337883 0.883167 -8.173516 0.0
-44.087799 17.0931 -1.270025 3.0
20.901852 -0.34505 -10.582575 0.0
49.062237 -10.338025 98.582458 0.0
-2.89845 8.075125 -24.709776 3.0
28.601051 -15.109301 53.73315 0.0
21.690384 -5.690067 20.5602 0.0
22.885151 8.14245 -128.13506 1.0
15.759501 -3.2328 5.57225 0.0
18.892437 2.665763 -56.407475 1.0
50.624378 -13.857538 93.388069 0.0
32.34655 -6.380983 73.600403 0.0
16.602909 1.56059 -36.891937 0.0
19.380299 3.9101 -54.364201 1.0
-46.5177 16.653601 -0.63425 3.0
-65.544556 6.8219 4.87415 3.0
-13.86208 10.188271 -14.375675 3.0
33.587452 -15.914451 -83.420792 2.0
19.761969 4.68666 -66.443382 1.0
47.374809 -10.158792 99.623245 0.0
18.03735 7.1777 -78.850998 1.0
54.918156 -14.37125 99.569496 0.0
19.634577 4.433661 -86.585899 1.0
-33.314632 9.611417 1.342175 3.0
-31.612551 14.384 -3.2906 3.0
16.09885 -0.67735 -14.952049 0.0
-63.128052 10.6046 3.3826 3.0
41.500851 -12.883461 77.666885 0.0
-26.099188 10.274301 -3.73006 3.0
-60.609123 7.103625 6.270638 3.0
17.376015 0.852833 -32.950184 0.0
16.4715 5.8372 -62.0756 1.0
21.67775 8.9804 -115.7613 1.0
11.869751 4.654489 -47.114017 3.0
19.228199 1.7741 -44.502548 0.0
15.91955 3.8945 -46.106499 0.0
20.830183 7.6438 -98.930939 1.0
18.170319 4.01205 -15.686033 0.0
57.935551 -8.8471 118.1733 0.0
29.771252 -13.5402 53.888702 0.0
15.300425 1.378675 -21.933224 0.0
14.864044 -5.207811 19.56782 0.0
14.82045 2.9709 -13.27655 0.0
20.59165 4.165 -86.851601 1.0
19.32679 2.30682 -31.089682 0.0
20.17415 8.7365 -104.5909 1.0
30.28125 -9.080301 50.290699 0.0
-17.629354 10.594328 -10.683685 3.0
32.863106 -6.681555 69.629921 0.0
-61.704021 10.537633 3.193133 3.0
22.118349 -3.222133 7.372366 0.0
16.55575 2.7626 -47.280201 0.0
30.8437 -7.62435 51.707886 0.0
37.557751 -10.698433 70.110031 0.0
34.51955 -13.300643 62.263241 0.0
19.839314 2.952663 -5.11315 0.0
18.72625 1.2839 -39.009201 0.0
34.60215 -19.115299 65.049797 0.0
39.84795 -10.9951 75.844803 0.0
-14.917183 7.346069 -9.647992 3.0
30.589218 -9.6098 51.845001 0.0
35.831005 -10.379487 65.673653 0.0
30.734152 -1.695967 -96.713104 2.0
18.506451 -0.356725 -20.476299 0.0
18.301809 0.72242 -32.339699 0.0
19.952349 5.091167 -71.885704 1.0
12.895075 3.116175 -47.601501 3.0
0.705773 4.402035 -24.311859 3.0
-5.158433 7.891915 -21.365936 3.0
21.841249 6.8294 -106.6052 1.0
18.1 -5.07555 12.8145 0.0
-49.359852 13.5223 1.5662 3.0
17.569651 -2.996 8.482 0.0
19.531921 4.1006 13.496799 0.0
-30.9196 7.48065 0.4438 3.0
1.09845 5.457375 -27.518425 3.0
-38.130077 15.359679 -1.093183 3.0
26.873236 -9.47 -86.656273 2.0
-32.153431 10.92671 -0.39854 3.0
16.718674 3.9333 -3.883625 0.0
53.484398 -15.0888 97.117752 0.0
49.75238 -11.473201 95.480965 0.0
19.699383 -7.910551 26.715284 0.0
32.192429 -9.101325 -91.274734 2.0
35.1866 -10.849525 64.066833 0.0
-19.33815 7.678147 -4.373282 3.0
-47.672935 13.346087 1.4231 3.0
50.155849 -9.71655 102.45731 0.0
60.393799 -8.8368 111.90221 0.0
28.874275 1.09485 42.293121 0.0
11.5528 2.7078 -44.62965 3.0
17.159229 -8.285921 34.648331 0.0
61.838951 -9.8906 113.04725 0.0
25.433075 -2.268025 -96.22963 2.0
32.855049 -8.3343 59.254154 0.0
7.01385 2.1547 -36.304501 3.0
20.686649 7.380725 -95.442322 1.0
23.425957 -4.881439 -90.345551 2.0
20.299583 -4.738233 13.263667 0.0
-37.006248 13.1929 0.1616 3.0
-18.731449 13.7127 -9.9292 3.0
19.154949 3.4473 -13.1989 0.0
22.063311 -0.28514 5.0794 0.0
17.59314 5.273503 -46.098698 0.0
34.425049 -9.3171 63.032001 0.0
3.606037 11.909124 -29.614632 3.0
16.1257 -0.472383 -17.439051 0.0
18.099951 7.548234 -85.059799 1.0
18.89835 2.12765 -49.465725 1.0
21.177349 5.9001 -96.490669 1.0
18.398426 7.548775 -84.157097 1.0
19.333652 2.400682 -26.903791 0.0
10.869162 3.107537 -43.624863 3.0
14.11915 2.07624 -2.0457 0.0
14.891621 7.374492 -49.254799 3.0
16.17485 4.3223 -43.232899 0.0
41.396248 -14.318134 76.320236 0.0
-55.118397 8.628417 8.376266 3.0
17.271725 3.96675 -2.8704 0.0
22.21945 7.4842 -110.9735 1.0
-41.872051 14.021633 0.732 3.0
14.699229 1.68494 -13.100279 0.0
22.8265 1.918567 20.627625 0.0
19.831299 1.28175 -18.364201 0.0
23.5308 -0.71055 17.099751 0.0
7.135633 7.879583 -38.119534 3.0
36.67255 -9.7222 84.7976 0.0
21.635321 -3.052172 5.416256 0.0
19.6991 -1.10465 -12.100433 0.0
35.78595 -8.8586 74.346336 0.0
67.398453 -4.0282 125.6994 0.0
-6.474975 12.141825 -20.137526 3.0
18.16725 3.9933 2.0097 0.0
20.293533 9.702784 -133.18967 1.0
-8.884451 9.702042 -18.650593 3.0
-21.48945 10.903638 -7.720813 3.0
15.904175 -6.2057 24.120827 0.0
22.329651 6.0656 -124.3594 1.0
6.1035 7.59975 -37.337749 3.0
-14.080799 12.398399 -13.7192 3.0
35.83456 -11.375636 65.543121 0.0
14.09065 -4.1166 18.6343 0.0
31.782351 -6.0032 59.756599 0.0
18.096775 -3.384175 13.790825 0.0
18.404825 7.9282 -90.115547 1.0
20.912075 -9.496799 32.509552 0.0
20.84865 0.04345 -98.862503 2.0
21.296183 -2.0664 -2.697033 0.0
29.4107 -0.4001 46.837574 0.0
19.62709 3.861292 -61.394592 1.0
20.697025 6.963325 -132.40829 1.0
33.578865 -7.86095 64.385017 0.0
34.898701 -9.836651 63.651299 0.0
15.895451 0.38385 -23.721001 0.0
-23.45145 14.78 -7.3231 3.0
32.870823 -16.68355 -81.641792 2.0
15.6737 -7.0844 27.7789 0.0
34.109776 -10.9051 61.287876 0.0
18.156878 5.196117 -47.854954 0.0
44.316525 -11.08165 89.115448 0.0
22.864019 -14.337399 45.658401 0.0
-39.713329 12.30356 2.2975 3.0
36.091648 -18.0005 -81.715202 2.0
-4.097525 9.8666 -23.366625 3.0
-32.279961 12.8321 -1.88565 3.0
-0.439217 5.771567 -25.101202 3.0
50.358398 -15.865974 91.469551 0.0
18.280163 3.743575 -10.083313 0.0
28.18565 2.0217 38.0229 0.0
19.063488 3.594875 -14.89246 0.0
-56.079147 14.26865 0.86725 3.0
17.856216 6.123734 -57.072369 1.0
-50.694515 9.275433 9.1026 3.0
34.280746 -7.9322 75.129745 0.0
20.615101 8.369467 -104.11212 1.0
37.836327 -9.711525 83.069351 0.0
26.33865 -6.56175 35.4935 0.0
21.70525 9.78549 -127.9396 1.0
-0.289075 8.6222 -28.064425 3.0
22.75485 -3.1844 8.7683 0.0
20.50745 3.3657 -104.4454 2.0
25.419899 -5.8679 31.16515 0.0
22.36895 6.655525 -132.1624 1.0
20.878748 6.1033 -90.20826 1.0
23.122049 -4.1806 18.274099 0.0
41.031273 -11.59855 77.850075 0.0
14.86775 1.8977 -17.8438 0.0
27.599426 -11.129576 47.089001 0.0
-68.342308 7.565578 4.092548 3.0
44.51215 -10.7204 97.056099 0.0
13.618732 -0.728217 1.940783 0.0
16.119034 4.16135 -30.962124 0.0
-15.092775 12.3241 -12.937426 3.0
35.246399 -11.67105 63.968048 0.0
