# .PCD v0.7 - Point Cloud Data file format
VERSION 0.7
FIELDS x y z label
SIZE 4 4 4 4
TYPE F F F U
COUNT 1 1 1 1
WIDTH 1422
HEIGHT 1
VIEWPOINT 0 0 0 1 0 0 0
POINTS 1422
DATA ascii
-21.716949 52.232147 27.13435 0.0
1.21085 23.23855 44.827774 1.0
-27.58285 41.305965 53.839935 0.0
-30.71945 72.604698 -45.022999 4.0
10.945211 12.422863 65.206451 1.0
33.393368 -11.838767 96.13166 1.0
92.058594 -52.48465 131.23901 1.0
44.617775 -27.170849 103.03188 1.0
17.221893 8.300877 76.48996 1.0
20.403599 -9.9555 85.826797 1.0
27.063675 -1.012661 87.462677 1.0
-9.743999 43.616577 14.795925 1.0
30.28425 -24.8228 97.125298 1.0
53.025951 -34.479 115.5362 1.0
6.38655 3.3953 71.938499 1.0
-23.912399 68.522751 -39.494003 2.0
-63.442432 53.713173 -2.45575 4.0
11.07335 20.744249 61.451 1.0
-92.837547 30.864201 8.0482 4.0
-14.463501 32.821877 28.237801 1.0
-33.601849 35.041698 82.899399 0.0
-12.521717 53.577904 7.649642 1.0
-80.585953 44.05415 5.92055 4.0
11.901236 18.198269 64.170486 1.0
39.245682 -27.688667 101.22956 1.0
-12.031125 45.66074 8.596508 1.0
-29.8717 85.935303 -110.02385 2.0
-10.768576 44.70887 13.918071 1.0
-24.706741 49.392769 23.003735 0.0
-29.316601 82.776978 -94.996696 2.0
-7.4107 33.7318 27.440552 1.0
-30.825174 76.043976 -72.697998 2.0
81.669556 -48.871552 124.3377 1.0
-90.92897 41.818748 5.4104 4.0
-25.263901 57.35725 -1.134 0.0
0.865792 20.829525 48.491737 1.0
-33.376564 36.122452 80.273048 0.0
57.676449 -43.2631 110.5441 1.0
-31.8312 71.700897 -42.886749 4.0
-3.25759 18.732569 51.290882 1.0
-24.348801 53.634102 15.464 0.0
-44.800751 67.449402 -20.705601 4.0
69.519348 -48.0863 117.0593 1.0
-58.63755 49.797264 -0.19515 4.0
73.95565 -47.606453 119.44952 1.0
21.152016 4.397758 78.462143 1.0
-25.631857 44.309814 31.002142 0.0
-22.8953 50.847801 33.485252 0.0
-92.606552 33.432899 6.736725 4.0
12.73595 16.322624 66.624199 1.0
-32.667252 84.068703 -108.823 2.0
-29.634951 72.1772 -61.462601 2.0
-18.846149 43.407501 11.1024 1.0
-28.567083 42.106934 52.833435 0.0
-26.937901 44.284798 39.4286 0.0
-22.226456 50.499062 30.632463 0.0
70.596558 -45.508759 122.20103 1.0
-94.641647 29.283163 7.448262 4.0
-33.668182 39.746574 77.543121 0.0
-29.451351 84.906754 -107.39615 2.0
32.744568 -10.037383 93.455322 1.0
57.814507 -40.589787 111.22809 1.0
13.206717 15.195932 67.46936 1.0
-3.29545 42.093464 30.699631 1.0
-15.463075 35.920723 23.628525 1.0
-25.29705 46.702148 54.147251 0.0
-18.415112 60.401234 -11.711725 1.0
-0.936421 25.74077 42.512833 1.0
28.3255 -17.821182 92.587776 1.0
-24.00535 46.338074 49.147701 0.0
14.7673 -9.175025 86.623596 1.0
36.584099 -17.790199 103.55485 1.0
-24.934484 48.116001 24.760366 0.0
-10.41715 57.5481 -82.897301 3.0
-12.05065 60.097328 -86.686218 3.0
-16.013609 52.058033 -6.859008 1.0
-47.55275 67.0495 -17.257099 4.0
-27.936199 69.134048 -41.365349 2.0
-4.75599 34.051926 32.265961 1.0
-81.668015 44.593079 4.500939 4.0
3.486916 28.484032 50.755466 1.0
-91.162674 34.837051 8.603275 4.0
-85.334549 35.643101 11.7719 4.0
9.41955 0.2133 78.860199 1.0
-24.366051 51.352448 18.594851 0.0
-1.288233 29.202766 40.405548 1.0
-24.843182 60.472076 -13.064751 0.0
-24.75255 73.608704 -96.191597 3.0
73.653351 -44.8853 123.91251 1.0
-89.591499 43.931049 5.2982 4.0
-26.25256 45.989925 56.916466 0.0
-84.008804 40.722599 9.48925 4.0
-30.283142 81.819916 -86.964806 2.0
-34.454811 35.592445 85.665833 0.0
8.111626 19.045074 59.03685 1.0
31.573784 -9.638316 91.840614 1.0
-29.469749 87.406097 -127.62015 2.0
59.21125 -37.075653 116.8674 1.0
23.2645 -14.289675 89.686073 1.0
6.382358 23.606125 52.620262 1.0
-13.795626 50.615864 1.99285 1.0
-11.775826 34.225304 26.031466 1.0
-28.337137 43.6633 53.487576 0.0
-19.327389 53.800301 15.062056 0.0
-25.45645 62.9538 -19.2668 2.0
1.842625 3.788125 71.499802 1.0
5.771375 28.347075 51.566902 1.0
35.829979 -25.745651 97.663834 1.0
-39.726849 69.191803 -27.599501 4.0
30.027702 -3.3883 90.445282 1.0
-82.811676 49.1763 3.921313 4.0
-7.10205 30.811451 32.362049 1.0
-85.598976 38.273174 9.6285 4.0
-24.743851 55.196152 7.916824 0.0
14.98625 10.5906 72.824799 1.0
19.562302 5.5336 79.452454 1.0
-22.617016 61.606316 -16.771484 0.0
-91.19265 33.071636 7.206183 4.0
-91.135971 31.884825 11.443325 4.0
-29.33465 85.533722 -117.52709 2.0
49.23222 -36.270008 107.22604 1.0
-15.849113 30.263388 31.956987 1.0
31.645321 -5.545072 93.738792 1.0
-40.389114 62.58783 -26.669317 4.0
-8.3947 50.112602 14.990049 1.0
-23.621901 50.2794 8.17585 0.0
76.832405 -49.496799 127.22702 1.0
-23.471924 53.597775 13.398251 0.0
-23.864273 56.003525 3.346 0.0
50.141651 -33.197651 113.15395 1.0
-67.339439 45.799316 3.24665 4.0
-1.730483 34.606617 36.776016 1.0
-18.121351 72.29747 -95.917107 3.0
2.321245 19.790798 50.236008 1.0
-17.980238 74.265945 -97.050209 3.0
-19.825384 62.370167 -21.189699 1.0
-79.183746 38.698898 11.9886 4.0
-88.691452 35.079201 8.2368 4.0
-32.968498 86.614975 -119.10056 2.0
-25.508699 43.958725 35.541252 0.0
-74.743454 41.893002 8.246059 4.0
50.6595 -32.161598 114.29865 1.0
51.658554 -35.188694 108.71278 1.0
-30.780451 77.122002 -82.515602 2.0
36.878483 -30.709433 100.51431 1.0
-28.55765 79.212029 -90.246925 2.0
67.582764 -45.367798 118.242 1.0
71.064453 -43.431152 122.86165 1.0
-4.402579 24.183683 43.089783 1.0
-70.925339 51.24189 1.900425 4.0
54.387199 -34.9221 109.8332 1.0
-23.271673 53.029125 16.227594 0.0
-25.044937 47.249863 25.907738 0.0
39.763351 -20.502087 104.39867 1.0
57.293602 -35.866501 115.0712 1.0
-92.909683 39.753826 5.873442 4.0
46.33865 -29.881464 105.05594 1.0
-8.3819 48.587051 14.96025 1.0
-26.2799 46.712399 29.07605 0.0
-10.5064 42.100548 13.3792 1.0
-96.694786 36.163166 7.284716 4.0
-6.581425 38.393852 24.468126 1.0
-24.67375 52.629997 7.07835 0.0
70.845917 -45.462231 119.6665 1.0
14.315001 0.9533 74.51815 1.0
67.006004 -42.972008 119.55392 1.0
-14.606504 48.500671 -1.526517 1.0
-23.532749 65.575897 -44.064701 2.0
-5.359083 13.621461 56.634052 1.0
-17.028549 36.319599 24.0804 1.0
-30.142673 40.166473 68.364777 0.0
-23.976852 55.525101 4.705069 0.0
-8.529224 39.440125 19.375525 1.0
-24.38662 46.999783 19.134756 0.0
18.437325 7.3065 76.401749 1.0
49.205902 -33.083 108.7302 1.0
-30.161049 86.544998 -132.30719 2.0
6.5976 25.093201 54.752327 1.0
13.435425 12.188551 68.895363 1.0
-13.8173 53.811775 3.7665 1.0
0.7032 27.408566 45.04615 1.0
-7.50655 28.965752 34.905449 1.0
-31.14455 85.8144 -104.6206 2.0
34.742451 -27.741501 98.909698 1.0
43.17548 -24.640833 109.92953 1.0
63.8148 -46.013184 115.21413 1.0
-25.854317 72.114899 -53.424931 2.0
-15.920419 32.682388 28.375881 1.0
-26.3398 73.500153 -58.773003 2.0
-98.818748 21.970051 10.47445 4.0
-17.881001 51.982651 14.6321 0.0
-29.711151 75.684753 -65.09095 2.0
45.984852 -29.883287 107.83733 1.0
35.514599 -14.7929 98.956726 1.0
-24.462049 66.420502 -32.391899 2.0
0.00715 34.191502 40.462399 1.0
-81.480148 38.8409 10.7424 4.0
-82.941879 46.023701 4.935925 4.0
-24.6817 48.926949 38.148251 0.0
83.851761 -49.558167 124.76906 1.0
-3.455983 40.369267 30.723066 1.0
-16.949934 31.956034 29.613966 1.0
40.497299 -32.493076 102.44882 1.0
47.126263 -33.637154 104.37939 1.0
-27.208549 45.375198 55.134899 0.0
78.127754 -49.320164 124.33669 1.0
48.4897 -31.94425 113.33765 1.0
35.341499 -17.23885 100.36693 1.0
4.028308 25.749859 51.628716 1.0
19.297192 0.388525 78.855408 1.0
48.244049 -29.8424 111.6925 1.0
55.855118 -41.539288 109.21809 1.0
-25.184015 53.874332 11.606467 0.0
-84.87812 47.293766 4.228967 4.0
67.392303 -45.387451 115.34998 1.0
1.691575 25.676338 47.181015 1.0
72.867119 -45.371799 118.88395 1.0
-32.913208 71.588524 -40.22015 4.0
-3.573825 28.896099 36.490276 1.0
-19.168701 42.520733 12.89995 1.0
-18.956051 39.848202 18.689301 1.0
-70.883461 48.411697 2.313537 4.0
1.9675 28.8969 48.271652 1.0
59.3904 -39.682533 117.63379 1.0
-13.742575 63.806301 -90.085548 3.0
-9.87875 61.576099 -89.041603 3.0
-25.3046 58.967075 -16.653675 0.0
62.878052 -42.122467 113.51407 1.0
31.943855 -7.698756 94.706558 1.0
-28.203981 43.224655 50.290997 0.0
-24.35685 53.264748 0.15095 0.0
39.4501 -17.604 104.0716 1.0
-20.759048 46.481003 6.53955 1.0
11.24035 18.3594 62.774799 1.0
-1.01485 33.671902 37.960201 1.0
-24.533451 50.1689 29.894901 0.0
-26.005516 42.774017 41.551918 0.0
65.197975 -46.758724 114.71373 1.0
-42.446548 71.237946 -21.166401 4.0
-18.005449 36.938702 22.9517 1.0
34.903435 -12.404737 100.72382 1.0
-61.1157 50.450649 -1.74555 4.0
4.35035 4.3322 70.117554 1.0
-33.089764 70.372864 -41.232899 4.0
56.316532 -39.281967 111.38413 1.0
-26.09585 60.101101 -15.309151 0.0
34.645115 -21.077868 95.871033 1.0
10.17735 23.337175 57.221947 1.0
1.221181 26.71973 43.751545 1.0
-23.290571 66.658455 -27.815821 2.0
12.754869 18.774632 65.56842 1.0
-39.958752 72.225899 -26.1474 4.0
16.712551 0.51065 76.163803 1.0
7.554658 23.793917 54.282253 1.0
-24.42845 59.002201 -6.7747 0.0
-75.470901 50.0536 3.63655 4.0
-19.20195 54.102798 4.20475 0.0
-16.892849 46.3601 3.8347 1.0
-22.974649 65.274902 -85.264099 3.0
-27.66485 74.423203 -74.639397 2.0
-0.697733 28.995548 41.8027 1.0
28.828751 -13.8844 91.062698 1.0
-31.68615 69.907097 -41.979401 4.0
-26.372183 45.315601 33.10693 0.0
-91.750954 29.749001 12.2514 4.0
-20.3494 55.334778 10.593625 0.0
38.523067 -21.108938 104.09906 1.0
32.427917 -11.082767 94.351532 1.0
-31.702534 38.239902 74.737213 0.0
-23.871876 56.3297 6.19575 0.0
-21.751875 79.333206 -99.656799 3.0
78.163872 -47.294598 123.58445 1.0
-41.758194 60.478439 -22.5438 4.0
52.746452 -36.121052 116.88185 1.0
-24.697388 53.738739 2.377175 0.0
-34.817719 34.139538 89.746094 0.0
-24.627951 47.612164 33.778469 0.0
-102.01575 19.686001 9.69495 4.0
13.81995 2.25185 73.547043 1.0
-2.07995 29.238674 36.672775 1.0
-20.119129 50.885876 34.082321 0.0
42.080074 -23.396875 106.46581 1.0
-45.080772 57.343575 -15.771175 4.0
15.994501 14.245636 72.148048 1.0
21.392651 -0.789642 79.341034 1.0
-28.854939 80.999756 -87.902611 2.0
-9.8753 37.605499 20.3701 1.0
-11.801849 52.2957 7.54385 1.0
25.720699 0.783433 85.671112 1.0
-28.0012 76.867981 -100.42085 3.0
-0.482875 37.616852 37.547276 1.0
-30.3985 87.504822 -116.343 2.0
-26.87925 44.925323 37.784649 0.0
11.002392 9.997133 65.89183 1.0
-26.471718 70.610771 -91.55941 3.0
20.46435 -7.3563 83.232002 1.0
22.040649 3.347525 81.957977 1.0
43.384949 -27.113916 108.18073 1.0
-10.371563 28.8559 34.589386 1.0
9.664608 18.622459 58.90609 1.0
-91.880035 35.792747 6.2111 4.0
27.728046 0.513188 85.583435 1.0
-7.89375 32.377499 29.569 1.0
-5.066675 44.657402 24.432449 1.0
-31.853275 80.65123 -106.72923 2.0
-31.714088 80.237587 -85.662086 2.0
2.755477 24.163298 49.450012 1.0
51.471924 -34.007423 107.33987 1.0
32.824799 -14.585985 96.487808 1.0
-60.092617 47.152332 1.958733 4.0
-17.637001 55.382523 -14.13785 1.0
78.723152 -49.269699 127.5271 1.0
-30.93325 84.357002 -98.490799 2.0
90.996605 -53.906326 130.11908 1.0
-1.966062 36.908638 37.597687 1.0
63.73885 -41.114826 119.80894 1.0
-30.213825 39.180698 66.58725 0.0
-25.028 70.351952 -46.606827 2.0
-25.931126 47.840401 36.10865 0.0
-17.295151 37.202 21.646851 1.0
-22.69035 54.445549 12.129601 0.0
42.418049 -29.8937 103.5565 1.0
56.941727 -36.848839 113.16181 1.0
-19.697113 67.865952 -92.221428 3.0
-38.4701 60.493961 -26.178249 4.0
54.498924 -35.944878 115.7193 1.0
-54.125751 64.656303 -11.8998 4.0
-27.887466 38.90892 58.97998 0.0
-21.887487 49.269188 38.924736 0.0
43.421299 -25.020851 102.3718 1.0
-41.869289 64.962128 -26.205942 4.0
44.247524 -27.995001 111.10098 1.0
-83.860725 37.347599 12.39255 4.0
22.955116 -5.215367 82.361313 1.0
-31.658901 87.284851 -112.3 2.0
29.622507 -11.703625 89.372429 1.0
5.55568 19.373219 52.680698 1.0
8.41675 0.8322 76.163902 1.0
-27.131582 39.778595 51.639473 0.0
-29.472851 68.416199 -44.562801 4.0
13.132304 9.236112 66.729622 1.0
14.630125 17.36459 66.193489 1.0
17.545269 12.370939 74.101776 1.0
-15.342717 52.903 -4.1081 1.0
-46.64925 54.188599 -12.3706 4.0
59.3256 -37.356201 118.6163 1.0
-19.502335 60.008949 -21.454632 1.0
40.78595 -24.673351 102.03335 1.0
-33.614925 69.308701 -42.381649 4.0
-20.57935 54.198101 17.312 0.0
81.051315 -50.926289 128.58759 1.0
28.27265 -10.32295 90.713348 1.0
-28.49605 44.402901 60.558201 0.0
53.849174 -34.320175 111.74596 1.0
-34.384697 70.609695 -36.086098 4.0
-10.0246 42.259514 16.976276 1.0
-52.080467 57.465523 -12.389017 4.0
-29.95545 84.552322 -119.8383 2.0
-14.2808 41.30555 13.3599 1.0
44.021801 -29.603451 102.60732 1.0
-73.651352 43.93906 6.524076 4.0
5.11245 27.308102 52.822723 1.0
9.5271 18.841 60.930901 1.0
-7.235917 38.993076 22.881218 1.0
85.981552 -49.808102 126.4503 1.0
43.318226 -31.99964 102.36813 1.0
-81.647697 37.975601 11.838949 4.0
33.626701 -16.640358 95.172287 1.0
-23.450951 56.055199 8.061 0.0
10.278863 13.4874 61.57238 1.0
54.34301 -41.262169 110.17403 1.0
-33.899426 30.951225 95.84343 0.0
56.912251 -36.645248 118.64645 1.0
56.784798 -35.986351 117.4053 1.0
-28.943962 75.464096 -62.439075 2.0
-24.972967 57.997562 -14.903333 0.0
-19.86025 51.579601 31.695 0.0
-1.626231 12.390476 57.647533 1.0
-17.443352 54.449299 -12.524662 1.0
9.08045 2.4759 72.981796 1.0
19.022476 4.692575 77.053711 1.0
69.925804 -45.385551 117.03629 1.0
-72.694794 42.942429 7.205364 4.0
22.232536 -17.730927 92.301041 1.0
-18.158068 62.025116 -85.6278 3.0
-14.863501 53.309998 -1.14695 1.0
-29.21805 38.7589 64.752098 0.0
-78.259705 46.11985 6.1743 4.0
-30.5951 79.631699 -78.6586 2.0
-25.603483 44.870747 36.870914 0.0
-44.560749 60.897449 -21.470051 4.0
-3.12405 32.358253 36.341331 1.0
47.384796 -39.351856 106.29813 1.0
-34.09005 33.855099 87.892097 0.0
24.044033 -2.6785 82.433197 1.0
37.351799 -23.639149 99.640503 1.0
-22.874975 54.330223 15.972824 0.0
2.723525 23.976 46.887402 1.0
-10.9329 39.753853 16.36215 1.0
-27.274349 43.686649 43.038147 0.0
-18.77685 52.873512 19.491638 0.0
-2.917382 26.508335 40.014751 1.0
-25.060387 46.756874 27.580524 0.0
36.767651 -19.298834 96.645699 1.0
-30.43095 75.585602 -75.827797 2.0
-32.752644 37.899693 78.401283 0.0
-75.331497 45.847847 6.86045 4.0
-32.35915 66.744499 -42.567501 4.0
-2.20855 25.0648 42.148399 1.0
34.414398 -31.413225 100.28721 1.0
-43.4776 65.2957 -24.362202 4.0
-10.47915 63.224499 -92.122398 3.0
1.01745 23.6064 46.9772 1.0
-1.540217 35.849003 39.047504 1.0
-85.546616 42.598221 4.858283 4.0
-27.815876 37.292927 63.652531 0.0
-28.435005 40.441963 59.632771 0.0
-18.436983 59.30603 -15.462766 1.0
-38.4669 70.68705 -29.128349 4.0
28.135149 0.54186 86.957893 1.0
-71.192139 45.452293 4.737671 4.0
-26.696318 43.108932 48.480133 0.0
24.64485 -6.6663 83.9851 1.0
-73.282715 50.281898 1.77314 4.0
29.924461 -5.773763 89.130623 1.0
25.862551 -18.9646 93.019096 1.0
16.033051 -5.1697 81.678802 1.0
-74.262146 48.089401 4.70485 4.0
74.389877 -45.08506 121.28294 1.0
-27.118099 42.495651 51.2696 0.0
-26.076769 71.250816 -92.906593 3.0
-7.7878 41.861252 20.066898 1.0
-4.11795 11.875 58.378952 1.0
2.734562 22.8417 49.870926 1.0
16.535049 2.54172 73.488792 1.0
53.693748 -36.030201 113.655 1.0
-93.991547 35.485607 6.412659 4.0
-3.36121 37.033104 31.775208 1.0
-25.545612 45.202103 43.386662 0.0
-22.908901 66.723549 -37.3741 2.0
-75.833923 48.424614 2.98104 4.0
15.2261 3.65642 73.527107 1.0
-13.879484 31.584858 29.980415 1.0
-81.113579 51.592098 4.03595 4.0
-26.09193 74.237442 -97.068054 3.0
-4.721191 38.347492 29.580982 1.0
48.23885 -30.5459 109.3103 1.0
-25.451801 52.361473 16.384949 0.0
62.630451 -41.763599 115.5494 1.0
-18.822199 58.96545 -17.978176 1.0
-20.448082 63.457104 -20.388369 1.0
3.288602 17.991575 52.679684 1.0
-24.785275 49.689762 17.191475 0.0
-23.8188 51.387451 27.750252 0.0
-27.556274 67.389999 -38.923203 2.0
-19.065899 61.796349 -15.24825 1.0
24.593491 1.611958 84.491318 1.0
-40.771149 71.467102 -23.563101 4.0
-24.663984 57.09 -2.399033 0.0
-16.820049 55.398636 -9.8814 1.0
-97.556351 28.917225 8.594225 4.0
-34.949799 30.36455 102.53149 0.0
-19.393049 53.6908 2.4021 0.0
-82.738007 42.405197 5.497 4.0
-24.95085 45.937698 45.993198 0.0
-12.771505 51.259125 6.456255 1.0
-19.262751 52.284801 25.2834 0.0
55.347214 -38.379833 112.3911 1.0
-8.812784 47.234241 16.701124 1.0
-5.38145 23.156357 44.513309 1.0
66.287544 -42.102299 116.26034 1.0
35.204018 -17.759117 97.495819 1.0
-25.8568 49.644852 24.448601 0.0
-24.840651 44.6087 29.924299 0.0
18.014675 5.883663 75.368744 1.0
-27.568937 42.194027 54.883026 0.0
-17.622717 59.359741 -8.633355 1.0
-26.809624 74.743477 -63.932449 2.0
0.295975 31.370975 41.080276 1.0
45.060226 -34.021225 103.40752 1.0
42.85685 -25.049049 107.32305 1.0
-75.773575 44.323112 6.835438 4.0
40.108902 -18.6453 106.35635 1.0
4.338 29.596424 49.623672 1.0
-24.45385 50.0956 12.3993 0.0
-12.8714 35.63287 23.592916 1.0
-23.902613 49.474937 10.639987 0.0
-62.69865 52.452 -1.7698 4.0
-19.66815 48.421249 13.06475 0.0
65.143906 -43.076134 114.5712 1.0
52.918285 -39.075268 109.52413 1.0
82.880829 -49.341675 123.83083 1.0
81.96756 -52.602417 124.70917 1.0
4.810543 26.768345 50.15612 1.0
17.034845 11.032442 75.089645 1.0
-35.551575 31.629837 100.09532 0.0
-22.037382 42.734116 28.684961 0.0
71.121765 -46.642876 117.99974 1.0
-5.2551 18.518 51.836502 1.0
-9.51065 46.2047 14.309 1.0
-77.237518 50.662437 2.517263 4.0
82.937332 -51.219109 126.10888 1.0
39.948551 -23.100599 105.3963 1.0
63.065048 -40.837826 117.85918 1.0
-20.17235 55.030998 12.0306 0.0
80.488052 -50.765301 124.5556 1.0
-43.67485 58.3265 -17.26565 4.0
-26.297749 66.861221 -34.338474 2.0
14.133848 7.83265 68.52858 1.0
-14.822949 59.637333 -82.157814 3.0
31.191475 -7.504013 90.962479 1.0
-26.465204 43.236931 38.034325 0.0
6.422161 8.345956 64.605705 1.0
46.198349 -28.052401 111.6658 1.0
-31.582718 79.382523 -82.90239 2.0
-18.377808 57.514992 -16.009216 1.0
-19.023624 69.41243 -93.360573 3.0
30.874998 -11.723301 92.182922 1.0
26.900984 -8.119733 87.871765 1.0
-33.538849 70.573196 -38.317902 4.0
31.369217 -4.387183 91.14122 1.0
-14.91235 45.53595 5.5479 1.0
-4.691675 27.397776 38.524849 1.0
46.876549 -36.7187 104.51215 1.0
45.882885 -34.890301 105.27523 1.0
-12.3707 65.064552 -92.385002 3.0
-1.629575 10.956875 59.2981 1.0
-25.800976 48.790501 27.909176 0.0
-27.066351 43.513901 55.735535 0.0
53.642178 -42.446777 109.71835 1.0
-46.632675 57.278793 -15.234757 4.0
-5.8599 16.281282 54.051285 1.0
-28.01605 40.993202 56.853775 0.0
9.40225 22.903198 58.520073 1.0
-56.18515 52.70005 -2.6067 4.0
3.326512 2.603575 74.132034 1.0
32.56535 -18.408949 94.155228 1.0
42.104523 -23.341202 102.04378 1.0
-21.368851 48.581001 44.328201 0.0
38.636181 -17.893801 101.29209 1.0
-28.0791 73.243103 -54.053551 2.0
14.782881 9.751875 68.764534 1.0
93.809143 -52.410625 129.6554 1.0
5.990538 19.349449 55.494987 1.0
11.74725 11.6755 66.337593 1.0
-81.338287 46.981667 4.875867 4.0
-30.597939 71.253151 -48.094826 4.0
44.085506 -26.643774 111.63071 1.0
-29.61245 84.101898 -104.8298 2.0
-91.055054 37.946625 6.990278 4.0
-24.637951 55.067352 2.0973 0.0
-76.807152 49.225101 4.2038 4.0
54.837051 -37.621902 110.73885 1.0
-96.626938 25.912926 8.143059 4.0
-20.3183 55.28775 -3.13165 0.0
-3.737661 15.390633 54.713406 1.0
-17.8563 67.409172 -92.106651 3.0
-21.76395 51.8298 29.605101 0.0
24.753725 -9.649138 86.345596 1.0
-20.475901 56.319099 5.2989 0.0
48.736649 -38.887001 106.9157 1.0
-86.938187 40.341244 5.56087 4.0
-76.369995 45.874153 5.2114 4.0
-26.39167 72.270111 -63.547859 2.0
29.37615 -4.1992 89.371002 1.0
0.526067 17.582951 52.979832 1.0
23.149342 -0.087542 81.020126 1.0
-78.993431 47.568844 3.779476 4.0
-30.01215 70.737 -52.778801 2.0
16.882801 -12.643 89.037201 1.0
-45.920639 62.502403 -20.7896 4.0
68.190247 -42.702599 118.454 1.0
-23.597725 48.882523 33.69445 0.0
-69.115601 54.594826 -0.145525 4.0
-6.745637 40.334652 22.948074 1.0
36.533073 -32.793201 101.31415 1.0
7.494616 13.525867 60.245331 1.0
-73.69165 41.160149 9.254416 4.0
-97.103699 30.207684 8.129392 4.0
-0.440875 19.002375 50.88195 1.0
29.479198 -16.318726 91.983047 1.0
38.66449 -23.602066 100.89848 1.0
-78.132683 40.775551 9.929083 4.0
50.12925 -31.491301 113.249 1.0
-30.36735 84.67244 -100.99344 2.0
63.456192 -42.471935 117.04366 1.0
-24.722916 50.096302 18.949934 0.0
-9.736963 40.760635 15.235403 1.0
13.213275 6.872025 69.8992 1.0
-9.407734 58.964699 -85.045715 3.0
45.96545 -28.475351 107.27567 1.0
-28.5886 73.963654 -49.338524 2.0
-23.363932 58.16515 -2.812967 0.0
-6.810942 26.073408 39.733437 1.0
3.4048 31.340599 48.4688 1.0
57.469818 -38.828049 115.13021 1.0
-89.862511 33.02055 12.472538 4.0
-32.409248 35.556 82.528 0.0
-5.2457 40.920525 26.62405 1.0
35.111092 -15.592867 100.86577 1.0
-21.113499 50.755348 37.150848 0.0
-86.867203 42.784401 5.904175 4.0
27.828674 -7.097662 87.245361 1.0
53.292053 -41.1856 108.46005 1.0
-23.998449 57.9958 -0.4573 0.0
-86.671112 37.987099 10.601358 4.0
4.911864 30.462456 50.586834 1.0
59.430252 -38.724701 120.12455 1.0
67.387405 -46.125237 116.50124 1.0
15.22345 16.0084 70.359802 1.0
88.117149 -53.051189 128.29295 1.0
-82.915451 39.56485 11.6865 4.0
19.53965 -15.531151 90.974426 1.0
33.425949 -14.68715 93.662949 1.0
99.567047 -55.879074 134.61751 1.0
-15.28478 68.695625 -94.370338 3.0
-29.23275 82.2976 -101.64865 2.0
34.062195 -13.081622 97.061989 1.0
11.74645 6.8381 67.852448 1.0
-64.320877 52.008823 -0.931375 4.0
33.038643 -20.834625 95.329117 1.0
-80.399979 42.49865 7.287025 4.0
51.306652 -32.500034 109.8755 1.0
-91.120552 40.0023 4.9553 4.0
-79.694153 44.0755 8.0365 4.0
48.512051 -28.92835 110.59015 1.0
67.558174 -43.130997 121.04158 1.0
-14.266701 62.841049 -88.721054 3.0
-18.002743 52.606911 17.274082 0.0
-21.51465 76.963425 -99.082626 3.0
-30.084499 78.392502 -103.85423 3.0
8.675541 4.853625 69.531235 1.0
36.22216 -23.680876 98.901703 1.0
65.209236 -44.315071 115.70435 1.0
-1.10675 22.4916 45.780651 1.0
-74.650955 43.690598 8.69615 4.0
-10.101376 35.487549 24.010124 1.0
12.6263 13.90085 67.136154 1.0
-22.212875 47.186752 15.56005 0.0
29.182751 -27.3255 97.6548 1.0
-30.169924 40.127327 63.156815 0.0
-19.884548 56.148148 3.85695 0.0
-26.506649 46.622856 37.677837 0.0
-11.272625 52.727127 9.821104 1.0
57.616051 -44.547199 111.9926 1.0
7.919175 24.8312 56.456776 1.0
44.676476 -29.667599 105.24448 1.0
25.619772 2.637208 83.413895 1.0
-15.63365 44.15435 7.8971 1.0
22.480116 6.188608 81.098206 1.0
14.788212 12.352055 69.598999 1.0
-46.242249 66.07605 -18.8256 4.0
52.98278 -35.97126 111.17635 1.0
28.282949 -15.184 91.817802 1.0
42.5662 -23.959026 108.95218 1.0
38.057854 -20.92725 100.339 1.0
-29.007301 81.126404 -97.528046 2.0
84.205917 -51.902451 129.63171 1.0
5.27605 7.6345 65.128227 1.0
-5.74245 21.913401 47.203602 1.0
-28.997601 70.395798 -49.992401 2.0
-23.403 46.632999 18.284924 0.0
26.585094 -6.409467 85.952591 1.0
-25.766775 44.638199 41.447975 0.0
27.452902 -19.382685 93.462852 1.0
-25.601551 53.919498 5.2127 0.0
-92.246155 28.941868 9.097693 4.0
53.284836 -36.706375 107.95393 1.0
-29.765051 72.927498 -64.830299 2.0
-1.601517 31.381433 39.951134 1.0
20.137274 -3.624433 80.098106 1.0
38.527748 -18.335449 104.9676 1.0
28.123119 -6.726546 88.865295 1.0
-0.028533 32.987366 44.192131 1.0
32.725849 -7.8898 96.75 1.0
-66.070877 51.774426 -0.113425 4.0
-20.8554 58.035324 -5.968325 0.0
-26.53371 63.098961 -26.12858 2.0
-32.095024 70.271942 -45.058952 4.0
30.567862 -5.217078 91.90554 1.0
-15.63325 54.432125 -3.011975 1.0
33.803497 -13.603617 99.552719 1.0
4.605325 14.279871 57.455086 1.0
-73.603409 51.631828 1.195985 4.0
-18.799381 53.792633 9.783163 0.0
68.0634 -41.784 121.69872 1.0
-22.377724 65.538254 -25.786549 2.0
-86.435974 36.595238 12.759001 4.0
-27.766499 69.772202 -43.8951 2.0
27.122349 -3.3751 87.188202 1.0
61.680321 -42.761444 112.55571 1.0
34.856728 -25.017267 98.20932 1.0
91.410706 -54.280499 132.85861 1.0
-67.41655 47.830276 2.022181 4.0
-20.05345 51.886501 30.391701 0.0
-93.217651 31.105499 12.3533 4.0
22.6735 2.192542 81.748947 1.0
62.566177 -45.182499 113.00525 1.0
-98.128479 33.825073 7.616325 4.0
44.064751 -25.65925 109.50845 1.0
-28.451212 78.95517 -88.933136 2.0
-30.297663 80.966019 -105.83322 2.0
-8.894325 42.417274 19.178875 1.0
-14.957 52.074249 -2.2233 1.0
-72.913986 54.143631 -0.039667 4.0
-28.676592 77.249657 -68.612968 2.0
-84.13092 38.860924 11.597225 4.0
-25.790516 62.89043 -22.650734 2.0
-25.603149 59.593601 -9.0689 0.0
-89.970947 34.396 11.730125 4.0
-14.434382 55.394501 1.260133 1.0
-19.825748 77.806503 -98.561348 3.0
-95.48877 33.735439 7.385071 4.0
-3.1474 33.617729 35.912956 1.0
-25.44475 43.064697 37.149601 0.0
-10.418213 51.325737 12.032375 1.0
56.008926 -37.882618 116.24577 1.0
55.719299 -35.888496 112.71835 1.0
-23.908676 52.697586 21.365337 0.0
-27.57305 76.670654 -70.025406 2.0
-8.27705 41.182686 21.218367 1.0
-24.307659 47.473541 40.112667 0.0
-29.618362 83.497437 -98.567307 2.0
-79.025421 45.619598 5.024525 4.0
-8.653275 44.322399 16.597 1.0
-0.754361 34.454849 41.519279 1.0
-28.667475 80.408325 -84.981873 2.0
-27.326077 65.156448 -33.139053 2.0
20.399059 2.961725 78.562439 1.0
58.296799 -37.035049 119.49565 1.0
-0.138725 32.359825 40.1101 1.0
-25.78705 50.908401 16.535601 0.0
1.92665 27.08 47.732563 1.0
-25.922918 44.702 50.476501 0.0
36.865574 -19.445538 99.238556 1.0
44.853588 -28.7591 112.04527 1.0
-21.763975 54.463512 14.300301 0.0
-30.958977 76.645576 -74.122696 2.0
-29.36335 84.740578 -115.97037 2.0
-66.952324 50.501396 1.1488 4.0
-53.340698 53.242653 -5.26505 4.0
5.713588 6.525163 66.707535 1.0
-33.032661 65.237968 -40.453201 4.0
-24.759407 47.806198 30.285124 0.0
46.4011 -30.555351 113.68871 1.0
-25.748613 64.954697 -28.56673 2.0
-46.929901 63.384674 -19.588902 4.0
-59.743401 60.790001 -5.501225 4.0
-25.843349 64.376297 -27.0075 2.0
13.72455 -4.2158 82.079697 1.0
-1.559175 32.834972 36.525051 1.0
11.733025 -4.308225 83.096207 1.0
-23.889601 48.497932 13.560819 0.0
-28.59161 40.80442 54.574009 0.0
49.948402 -29.94125 109.4161 1.0
50.121552 -33.596226 115.15475 1.0
-24.592325 47.091724 38.147102 0.0
36.477837 -26.82085 98.285065 1.0
-33.446823 31.227724 93.674049 0.0
-38.537949 70.031097 -27.980301 4.0
20.821184 7.220707 80.984497 1.0
85.642754 -50.6884 129.52679 1.0
3.621525 28.629375 48.452148 1.0
21.535851 -19.392599 93.676399 1.0
-4.454733 33.425968 30.446497 1.0
9.09823 16.5107 61.499939 1.0
-3.92005 41.623051 28.847517 1.0
4.13205 11.9087 59.921898 1.0
-61.013874 49.213524 0.722825 4.0
-24.75465 43.627174 31.718399 0.0
-83.804047 44.051201 6.1616 4.0
-30.561525 38.604706 70.194023 0.0
-7.830675 28.463438 36.135349 1.0
-22.136524 48.04995 45.308647 0.0
37.310375 -16.377399 99.509598 1.0
48.118004 -33.350372 106.29575 1.0
-7.997667 37.931259 20.892042 1.0
58.36935 -42.285599 111.92828 1.0
-20.877451 51.529202 27.8734 0.0
-21.7101 43.316151 26.349701 0.0
-30.591551 70.598602 -51.438 2.0
-32.342751 86.486404 -110.0585 2.0
-27.832092 39.039177 57.562862 0.0
-29.758051 74.420799 -60.0121 2.0
-28.209249 78.11055 -74.366653 2.0
12.75365 15.912483 65.243584 1.0
-20.849388 52.346325 25.735662 0.0
-56.831181 50.930229 -2.246387 4.0
47.932682 -37.6786 106.31837 1.0
14.418313 4.026813 72.303665 1.0
-38.039818 61.360428 -27.827148 4.0
28.486588 -24.990738 96.726562 1.0
74.977348 -48.009998 122.2454 1.0
20.536863 -5.440988 81.622833 1.0
13.70255 -0.69275 76.428848 1.0
73.833298 -49.144482 120.59515 1.0
-30.337351 42.460098 69.504799 0.0
-89.718719 40.018997 6.5732 4.0
-43.12875 57.3657 -15.8365 4.0
75.920753 -48.097603 119.80099 1.0
56.789261 -38.011414 110.47944 1.0
14.91635 13.8706 73.082603 1.0
16.083651 -4.410633 80.5672 1.0
-22.31315 72.267601 -95.475197 3.0
0.5301 25.696924 42.937775 1.0
-72.937622 47.880398 3.05706 4.0
-20.92345 57.585251 -8.498451 0.0
-29.90085 82.029404 -108.9241 2.0
-59.768551 51.567799 -0.6758 4.0
32.556278 -15.560333 94.349823 1.0
21.59255 -12.4679 87.835403 1.0
-18.4347 53.076149 12.6072 0.0
79.671173 -50.7145 128.2581 1.0
-2.58955 41.483562 29.21855 1.0
9.34525 -1.3886 79.287697 1.0
-23.976053 49.149242 40.060345 0.0
0.87395 31.311132 46.23093 1.0
-80.698639 39.766186 8.606809 4.0
-2.827125 38.521027 34.0303 1.0
-9.332531 40.344673 17.028229 1.0
-7.258925 47.212952 17.59985 1.0
19.692326 4.677975 78.185455 1.0
-82.020149 41.720402 7.2842 4.0
38.539402 -34.357574 102.25772 1.0
-76.045265 41.780365 9.187449 4.0
55.046131 -34.690033 115.61508 1.0
34.054348 -14.892634 98.659599 1.0
38.319763 -19.353012 102.20703 1.0
1.543483 5.973971 66.700386 1.0
31.662275 -26.772364 97.532448 1.0
26.865532 1.637217 85.403801 1.0
1.593498 18.047298 52.071449 1.0
25.665649 -15.1212 90.852798 1.0
-25.161703 47.366882 45.9016 0.0
-48.384521 60.408329 -17.839945 4.0
18.091949 -11.336 88.645798 1.0
43.426182 -28.359966 104.2454 1.0
39.421234 -22.084084 106.62753 1.0
-25.210449 58.969826 -12.438101 0.0
-16.2542 73.665497 -97.649338 3.0
-98.332115 26.906633 9.693167 4.0
-25.32415 48.109352 19.017349 0.0
-12.41605 61.64415 -88.571945 3.0
11.57026 14.517169 63.809681 1.0
59.718849 -42.997437 112.59528 1.0
-29.295816 72.917336 -55.539902 2.0
-0.801225 36.247734 41.467899 1.0
-30.305267 42.625736 65.356133 0.0
35.830547 -16.113367 99.117607 1.0
60.017628 -41.900452 114.25781 1.0
-21.784725 45.650452 19.648125 0.0
-17.60025 41.333099 14.1947 1.0
-13.7955 48.091431 1.540917 1.0
-6.9901 46.608318 20.3263 1.0
41.280476 -23.247276 100.5153 1.0
-15.986769 70.130173 -95.16716 3.0
7.444608 17.645227 56.135292 1.0
-54.442623 51.059052 -2.363645 4.0
1.7018 12.31105 58.905403 1.0
-59.30265 53.522549 -4.73865 4.0
-87.43885 36.524498 9.8061 4.0
-35.656898 69.909851 -35.438751 4.0
-30.598351 40.101925 70.63765 0.0
-76.942352 43.220249 7.84575 4.0
14.807751 16.304688 66.96595 1.0
38.699596 -22.125168 103.1338 1.0
-24.0042 46.679775 46.634388 0.0
84.745331 -52.030056 126.62039 1.0
-27.090837 44.537186 60.822777 0.0
-57.513451 52.566002 -2.3203 4.0
59.98037 -46.044998 113.2327 1.0
-24.658699 49.9146 21.277451 0.0
-22.673912 51.254135 25.309362 0.0
-31.543449 80.806297 -84.497704 2.0
56.580864 -41.876476 110.70393 1.0
-25.70035 69.251297 -37.604198 2.0
-0.9028 29.903351 38.684799 1.0
4.00885 25.668602 48.570923 1.0
-21.590151 69.101135 -92.683487 3.0
-7.073875 35.674637 26.272449 1.0
-12.8787 53.723503 5.2773 1.0
71.943161 -46.160141 119.90852 1.0
-58.883747 49.550964 1.069933 4.0
-18.666901 60.723351 -13.5625 1.0
-27.843477 41.190414 49.720257 0.0
-22.897049 51.147598 31.545399 0.0
-78.348442 38.986824 11.025249 4.0
-90.274376 31.39595 8.8931 4.0
-25.400682 48.730995 32.71843 0.0
8.508367 7.981449 65.555763 1.0
-44.202087 65.509392 -22.930037 4.0
-19.490309 54.751556 8.951684 0.0
-23.88785 56.333252 2.0846 0.0
37.037819 -16.861246 101.33783 1.0
-49.838684 63.453529 -15.846447 4.0
1.273925 30.751637 43.428535 1.0
-28.802959 41.795021 63.281994 0.0
-21.465351 50.418751 33.129951 0.0
20.603001 -15.4596 90.221802 1.0
37.987274 -17.291687 104.35181 1.0
-22.23115 57.769901 1.5477 0.0
-13.47205 41.939224 12.430975 1.0
35.269779 -20.806393 96.97998 1.0
-18.2131 59.3008 -14.11775 1.0
-48.494049 53.067402 -10.5079 4.0
-29.244499 82.138947 -91.740707 2.0
87.730087 -51.181618 125.84137 1.0
-11.70015 48.111748 8.3468 1.0
-23.939251 46.168201 52.3265 0.0
11.81855 19.311901 61.1073 1.0
18.112883 -7.002791 82.894135 1.0
-5.353475 45.600399 23.585999 1.0
-102.66089 24.704008 8.019478 4.0
-22.333826 56.737801 3.802325 0.0
-100.18463 21.208847 8.525576 4.0
25.24305 -2.64545 84.576698 1.0
-28.236597 42.163391 60.05365 0.0
-49.100025 63.371597 -17.04855 4.0
-23.903826 52.19405 17.17865 0.0
-3.3879 19.476574 50.235161 1.0
-26.936352 75.177551 -68.592377 2.0
62.240498 -38.536182 119.87562 1.0
-21.130751 49.010502 -0.3118 1.0
-4.487083 35.681168 31.717133 1.0
-22.869476 52.786301 22.976002 0.0
69.173355 -44.174217 120.23407 1.0
52.008698 -35.063206 110.84964 1.0
-0.732558 33.397568 39.556396 1.0
-22.232676 64.983505 -35.365799 2.0
-25.640862 39.025589 49.0303 0.0
-69.809662 52.041626 0.215535 4.0
-25.224951 40.577499 41.445099 0.0
-88.061554 32.900948 10.64165 4.0
60.461502 -40.438751 112.53622 1.0
14.665525 16.984526 68.523438 1.0
-35.625648 35.8004 88.317902 0.0
51.886353 -34.608185 113.28519 1.0
-83.562553 37.306499 11.1321 4.0
66.810699 -41.062927 122.6076 1.0
-24.630449 56.1968 -9.3848 0.0
43.050652 -21.670401 108.4405 1.0
40.466553 -27.153683 100.92729 1.0
40.178059 -23.12841 107.36911 1.0
-21.744049 62.866951 -34.56485 2.0
11.494917 9.199383 66.852783 1.0
13.298083 -4.896167 83.699501 1.0
-19.191 46.675598 4.37035 1.0
-83.156952 42.2967 8.0332 4.0
-26.728048 41.296833 45.492168 0.0
8.849667 20.013649 57.222034 1.0
70.612579 -44.267475 118.81671 1.0
-0.574025 25.398624 41.183273 1.0
26.397701 1.87255 84.107254 1.0
44.552349 -24.640926 107.95407 1.0
1.3785 28.888649 44.399551 1.0
36.592937 -19.899136 97.910049 1.0
80.509155 -49.059921 122.5987 1.0
-77.445053 44.873703 7.73235 4.0
-30.20335 89.833397 -129.7523 2.0
-22.89925 57.992077 -1.2249 0.0
-24.063766 48.168365 35.129517 0.0
-16.961174 43.3283 10.006075 1.0
-20.058855 60.075268 -25.043493 2.0
-19.377951 52.0616 27.7934 0.0
-26.6656 62.169426 -28.557426 2.0
21.883049 1.666675 79.399796 1.0
-5.313375 36.82275 27.691826 1.0
-26.784706 76.65654 -99.563797 3.0
-75.509567 41.112587 10.406549 4.0
-63.389633 44.867352 2.663233 4.0
-32.312248 81.872101 -100.0171 2.0
-8.325563 48.498974 17.395313 1.0
-17.556749 58.106201 -10.5788 1.0
42.787201 -27.381508 101.85091 1.0
-36.134571 63.470699 -33.390903 4.0
68.982544 -42.251999 124.04539 1.0
-71.642746 49.73045 2.8939 4.0
-20.2626 41.3153 16.61895 1.0
-33.899475 37.372875 80.314575 0.0
-7.287416 37.605865 25.414215 1.0
-30.675701 89.070099 -122.16772 2.0
0.00795 36.1357 39.585201 1.0
-40.068451 63.669952 -29.21195 4.0
-25.261765 61.951851 -15.463317 0.0
-17.933849 51.6213 19.888399 0.0
-30.285049 79.20285 -76.610153 2.0
-95.640602 24.983967 11.081463 4.0
-84.914001 41.882999 5.79805 4.0
-23.665518 75.083778 -97.761108 3.0
66.900436 -43.648357 124.6459 1.0
-91.593452 31.739599 8.3722 4.0
-1.667094 16.640057 53.743378 1.0
-27.458426 76.010345 -66.789871 2.0
-31.186951 78.4142 -87.637703 2.0
10.16935 20.976 59.975498 1.0
-56.638073 49.772625 0.0531 4.0
-26.734558 45.978374 46.030853 0.0
-4.56685 31.400501 33.456001 1.0
43.866253 -24.688967 104.91174 1.0
41.497551 -34.109375 102.43013 1.0
-0.96 38.019577 35.897526 1.0
44.846249 -28.11725 104.90875 1.0
3.222817 19.826782 51.831367 1.0
85.444054 -52.877399 131.26019 1.0
-82.0093 44.297226 6.783515 4.0
-63.715652 47.426849 1.24305 4.0
-6.768807 24.399487 42.568466 1.0
-20.13485 63.1292 -18.744101 1.0
6.071131 25.34478 52.053383 1.0
23.980963 1.202387 83.13578 1.0
7.46065 23.0012 56.425476 1.0
39.779121 -30.761116 100.68195 1.0
17.525974 8.958595 75.061676 1.0
-36.662781 67.880028 -35.077335 4.0
22.83745 -3.594033 83.669403 1.0
-36.819675 69.456085 -33.155365 4.0
49.971882 -33.73634 106.13683 1.0
50.216717 -38.271076 106.15055 1.0
17.0347 3.715 75.5541 1.0
45.093216 -29.815105 103.35645 1.0
20.84745 5.641233 80.358231 1.0
1.04195 32.5173 42.959999 1.0
-5.192787 34.816589 28.49095 1.0
50.314049 -36.67635 108.0311 1.0
-29.434601 42.381966 59.343151 0.0
-90.142395 37.686302 5.82715 4.0
30.817883 -20.380783 94.38002 1.0
-76.403809 51.480923 1.880227 4.0
10.14355 22.8536 59.818501 1.0
32.929798 -10.378183 95.686287 1.0
-46.020931 61.09248 -21.138699 4.0
-56.663219 51.8606 -3.693767 4.0
34.098053 -16.642826 97.88224 1.0
-30.8724 40.610973 65.709122 0.0
2.094116 30.124701 48.70163 1.0
59.398186 -39.367958 114.61252 1.0
-46.81395 60.732529 -20.046227 4.0
1.32635 32.5214 47.869003 1.0
-25.712574 71.352699 -58.827202 2.0
-43.387501 59.058174 -18.711376 4.0
58.97699 -37.95647 112.7002 1.0
-78.453705 43.735851 6.81465 4.0
22.303101 -4.387533 81.597076 1.0
-79.008423 42.766026 9.597975 4.0
-0.96945 7.3101 63.6572 1.0
34.989349 -10.90605 97.485847 1.0
-14.58935 44.939301 6.7627 1.0
-78.51265 48.993248 3.349392 4.0
6.37815 1.167 76.747398 1.0
-14.114834 28.163 34.453316 1.0
-30.754049 82.390099 -89.175598 2.0
-25.55055 49.625256 26.879843 0.0
-92.37915 32.0896 11.6498 4.0
-11.30975 42.592377 9.9242 1.0
64.568245 -42.910168 117.90487 1.0
-25.018259 48.813141 35.901764 0.0
17.689825 -1.29615 77.406677 1.0
29.946209 -18.027084 93.829102 1.0
31.646074 -13.458384 93.281387 1.0
11.228226 13.016225 63.043678 1.0
-14.06575 53.296051 2.46155 1.0
43.236324 -25.595825 110.77155 1.0
97.4534 -55.923668 133.1384 1.0
40.093948 -24.183666 99.713356 1.0
71.364708 -45.887314 123.41431 1.0
-27.1448 39.180672 53.232597 0.0
33.219452 -18.5156 95.847 1.0
54.5718 -37.318398 108.76035 1.0
9.664912 25.395237 56.473278 1.0
-20.787514 51.240749 35.180901 0.0
-72.990952 52.731152 1.55935 4.0
-2.991 33.123474 33.40715 1.0
-25.05055 48.344551 17.00865 0.0
-27.619251 66.34285 -40.284752 2.0
17.866051 9.6405 78.572601 1.0
17.233776 1.699013 74.32621 1.0
-45.087303 63.399242 -21.830605 4.0
7.75695 1.6772 76.849197 1.0
-27.97295 78.4161 -79.418877 2.0
4.02535 2.920925 73.082947 1.0
-25.372137 46.737537 50.966175 0.0
-1.03765 24.57485 43.139297 1.0
78.079224 -48.419651 121.05836 1.0
-23.558311 48.780048 43.572224 0.0
-1.4057 18.084549 51.752998 1.0
-31.030766 36.243988 75.117554 0.0
30.357412 -10.998667 93.239914 1.0
-86.556107 36.445351 8.114 4.0
72.793655 -47.171577 125.90613 1.0
-10.713573 48.8372 11.023001 1.0
-23.035049 52.361301 24.6586 0.0
-34.570148 30.1355 99.841904 0.0
27.372276 -9.151026 86.884079 1.0
3.737075 9.91965 61.884979 1.0
-34.593147 68.222488 -41.908043 4.0
-68.191017 49.202023 1.167145 4.0
7.43965 2.1719 74.744904 1.0
60.920952 -39.218102 115.5228 1.0
-12.75575 49.118599 5.73 1.0
-26.457926 39.992596 47.769409 0.0
-24.309275 55.051041 9.971163 0.0
63.442001 -39.474525 121.0443 1.0
-27.397514 73.375854 -51.740414 2.0
-25.0527 70.649796 -49.453972 2.0
33.012348 -10.979 99.8218 1.0
58.841629 -40.613281 114.33377 1.0
-9.68005 38.3689 18.337 1.0
42.312214 -26.127733 101.92133 1.0
10.728253 16.283834 62.116272 1.0
0.9905 24.4165 43.915024 1.0
-1.335913 26.735825 41.540817 1.0
37.985931 -28.495367 99.363449 1.0
28.322372 -1.989042 89.363052 1.0
-12.41155 29.569983 33.183411 1.0
46.36377 -32.205849 106.29234 1.0
-82.306351 35.853298 12.5089 4.0
-14.213684 48.777515 0.03105 1.0
19.013874 -0.385538 77.02182 1.0
23.787451 -1.7836 83.3964 1.0
-40.485001 70.903595 -25.343349 4.0
7.09645 -0.26105 78.884003 1.0
23.862049 -20.355749 93.969498 1.0
69.742157 -47.779793 118.52376 1.0
-18.760952 52.021538 23.975906 0.0
-73.508698 46.329849 6.1047 4.0
32.120518 -9.231003 94.328758 1.0
-24.48245 45.6954 55.169399 0.0
56.109703 -40.458488 111.80199 1.0
-13.30065 51.520699 5.017575 1.0
-13.9408 59.263298 -84.530151 3.0
38.758373 -26.548025 100.98029 1.0
-28.499451 42.899799 66.510002 0.0
-25.545151 55.976101 -0.1877 0.0
-83.533852 47.735901 3.7736 4.0
61.801422 -40.810349 117.91567 1.0
-31.8813 88.291 -118.3969 2.0
35.892502 -13.47455 101.78777 1.0
28.365549 -9.13575 89.626991 1.0
-71.724945 52.947201 0.28885 4.0
-71.941536 43.93605 7.40711 4.0
30.813843 -13.003078 90.700439 1.0
-32.725956 36.149406 78.941551 0.0
41.594688 -26.242434 103.90666 1.0
-24.9641 48.062897 22.6814 0.0
40.747475 -23.856861 108.68776 1.0
-64.865479 48.790184 0.628345 4.0
-26.025213 46.306351 52.09359 0.0
52.48735 -32.798698 115.4441 1.0
31.323715 -14.625166 92.407181 1.0
-21.10845 46.579102 8.5292 1.0
-20.420082 65.285042 -88.376358 3.0
-24.25625 53.085251 12.554 0.0
-4.800713 28.61067 36.42992 1.0
33.654362 -10.915692 97.384972 1.0
55.549149 -34.535061 113.58643 1.0
1.000875 27.477343 42.768002 1.0
74.774872 -47.765301 124.85927 1.0
31.69865 -6.491875 94.974548 1.0
-81.692162 42.936275 6.37335 4.0
-86.546646 35.202652 11.2329 4.0
-19.29505 44.688202 8.8023 1.0
19.290051 7.970883 80.324188 1.0
-11.86995 38.607899 18.4778 1.0
-26.84145 67.827477 -37.98315 2.0
15.617778 4.635714 71.420204 1.0
25.508301 -1.67025 85.988052 1.0
-10.947525 36.498222 22.227951 1.0
-26.760963 61.821888 -26.391602 2.0
17.727526 -0.156875 76.494499 1.0
-16.659218 62.523502 -87.41246 3.0
63.02705 -40.330673 121.8684 1.0
-32.491302 82.072647 -96.913551 2.0
-29.280951 72.278999 -95.2127 3.0
-9.4645 50.570503 14.0274 1.0
46.673775 -30.171669 108.85122 1.0
-63.108498 49.798851 -0.7061 4.0
-1.76875 41.422001 31.9625 1.0
-93.774323 31.101143 9.767408 4.0
-12.497999 45.393982 5.7548 1.0
-32.548626 83.230728 -99.087952 2.0
42.745014 -32.683998 103.51971 1.0
-79.582848 49.698124 3.4844 4.0
-25.486691 71.212059 -57.24369 2.0
-20.153618 54.471268 15.751299 0.0
32.384251 -12.0893 92.732399 1.0
-29.94965 88.6595 -124.8471 2.0
-0.22875 27.121099 40.79105 1.0
-23.100149 50.889 0.447 0.0
28.3398 -9.7485 87.95475 1.0
54.751236 -38.691181 110.07266 1.0
-5.785825 42.486702 22.878189 1.0
-27.00465 63.9697 -33.931499 2.0
-29.682701 88.644226 -127.62545 2.0
-23.948063 69.715378 -91.948792 3.0
8.248962 26.824024 55.121239 1.0
-19.307051 38.152 20.897301 1.0
-24.766975 69.992676 -52.087723 2.0
-25.311901 75.428085 -98.19371 3.0
-27.740326 70.776398 -91.470245 3.0
20.587925 7.208025 78.594925 1.0
-97.194397 29.153675 7.415925 4.0
40.225052 -21.703449 107.51265 1.0
73.337921 -47.076904 121.96825 1.0
-31.98395 87.589775 -114.90578 2.0
14.450871 13.0151 70.608246 1.0
-7.16305 22.30105 46.789734 1.0
-25.961557 47.913864 28.790741 0.0
-76.389297 40.395187 9.8192 4.0
-96.337173 28.597374 9.936825 4.0
-24.619875 55.40065 -5.80495 0.0
-21.106499 64.868752 -86.981232 3.0
-76.703133 48.099983 4.744859 4.0
-37.73233 66.726601 -33.847881 4.0
4.3216 9.23015 62.891602 1.0
60.260666 -39.279167 118.79535 1.0
-34.131706 65.212669 -38.589752 4.0
-21.95735 65.00132 -30.820051 2.0
-95.72435 31.323626 7.165925 4.0
68.142273 -48.19381 116.878 1.0
-29.006725 92.333298 -131.86932 2.0
-27.73295 74.167 -56.497398 2.0
-13.047251 39.389648 16.98945 1.0
28.137115 -1.652917 87.407188 1.0
-69.411667 47.227173 4.107925 4.0
31.36965 -17.105635 93.088501 1.0
46.687 -28.302151 110.3251 1.0
78.096848 -47.984501 126.0338 1.0
-22.994701 61.662453 -14.1124 0.0
-24.023174 41.845818 33.690388 0.0
50.945053 -33.925949 116.37435 1.0
-99.650711 22.631599 8.006172 4.0
-63.949677 59.356327 -2.127222 4.0
-72.245537 41.934235 7.807322 4.0
-11.288731 31.608952 30.256512 1.0
69.835747 -43.138599 120.4577 1.0
50.224777 -39.0061 107.67709 1.0
-80.844849 40.8773 11.10675 4.0
-3.669667 33.367065 32.373085 1.0
-19.578751 48.011799 1.2694 1.0
79.613525 -50.108078 127.09895 1.0
-24.838249 55.383774 -2.88975 0.0
-15.575504 51.262264 -4.700045 1.0
-95.294922 26.769442 8.26693 4.0
-47.325401 58.08305 -15.909175 4.0
15.674049 -0.609433 76.361534 1.0
-80.005692 45.1119 6.6443 4.0
26.534958 -0.816533 85.921562 1.0
41.583851 -22.9023 105.42435 1.0
10.867016 4.64295 69.909134 1.0
-20.698 45.336548 21.45035 0.0
-25.697617 44.917969 53.231171 0.0
22.303974 -10.609825 86.413971 1.0
63.729149 -42.608398 115.8339 1.0
-22.012232 64.957848 -33.361233 2.0
-63.934124 48.907475 1.6111 4.0
-16.84095 38.396103 19.390675 1.0
36.969025 -28.808725 100.20587 1.0
49.881348 -31.915451 115.25895 1.0
12.199551 10.742201 67.231918 1.0
21.35685 -13.89395 89.091293 1.0
-17.936838 51.996803 13.387262 0.0
2.3635 29.292233 46.799568 1.0
38.605186 -20.822166 106.24182 1.0
-96.864746 27.883202 11.4964 4.0
-22.241341 49.095146 43.602623 0.0
0.781625 10.365713 60.376663 1.0
-10.047 39.37125 17.36585 1.0
-0.095758 11.253616 59.156116 1.0
57.310272 -38.292133 111.94368 1.0
-23.916616 52.895535 14.559834 0.0
-25.033737 45.980026 44.59346 0.0
-19.874683 42.413383 14.021034 1.0
46.87595 -36.67775 105.80275 1.0
-56.141903 53.358734 -6.056866 4.0
-70.461502 47.9179 4.18185 4.0
-44.801048 58.071201 -16.7411 4.0
-5.90935 30.562099 32.911499 1.0
-33.586494 32.714417 91.075638 0.0
-24.0082 50.214348 9.356775 0.0
-55.740879 56.294865 -8.18435 4.0
48.728802 -29.538574 113.82401 1.0
-24.692301 51.269264 14.430662 0.0
-82.709167 46.753716 3.680504 4.0
-54.349213 51.712036 -3.601738 4.0
57.588909 -39.369232 112.61523 1.0
-35.700951 61.70195 -31.981201 4.0
38.00375 -29.231724 100.8289 1.0
-24.59095 64.468102 -23.9576 2.0
16.825802 13.14555 72.052101 1.0
-57.480103 61.087097 -8.028549 4.0
39.628876 -21.805223 101.44005 1.0
8.59085 1.7212 75.2453 1.0
50.130348 -33.067451 111.16156 1.0
0.71435 29.609026 41.846775 1.0
16.417791 10.994358 73.426514 1.0
-26.0536 46.488251 48.056099 0.0
-50.025711 58.407951 -13.703358 4.0
-30.067949 71.7714 -50.672298 2.0
4.630063 21.479061 53.267838 1.0
54.069 -39.760178 108.2556 1.0
-26.53138 45.99715 34.13261 0.0
69.310806 -46.051525 117.8848 1.0
-13.824798 29.619936 32.716152 1.0
-21.914249 44.816299 24.7108 0.0
-29.115623 83.418854 -109.84167 2.0
28.399311 -13.17515 89.781372 1.0
65.324776 -41.964825 121.35915 1.0
-18.370783 52.869267 11.0388 0.0
-78.757149 42.8591 7.7986 4.0
10.723249 14.131187 64.629387 1.0
-16.1542 60.607525 -85.346451 3.0
-15.980225 40.435036 15.214849 1.0
-84.606865 43.980808 4.418494 4.0
22.101299 -1.08665 82.31665 1.0
36.759865 -17.374786 97.422035 1.0
-27.79915 43.616402 56.913898 0.0
1.640282 22.225777 48.443382 1.0
-23.380701 49.382248 31.979382 0.0
-28.9648 76.071114 -100.36742 3.0
6.727325 20.1369 56.758598 1.0
-82.456406 36.760101 11.580475 4.0
-80.62075 48.132401 4.5232 4.0
-93.383766 28.218307 8.539004 4.0
20.554075 2.259942 80.088745 1.0
39.563168 -23.210419 103.64951 1.0
-57.425301 55.941025 -7.07665 4.0
-76.088654 53.155201 2.20925 4.0
-32.400848 69.455498 -38.595001 4.0
17.726887 6.178163 76.686676 1.0
-11.389058 50.372807 9.602616 1.0
-6.447283 24.985399 41.491035 1.0
-40.707397 67.903397 -26.279449 4.0
34.65107 -22.015301 97.537231 1.0
-77.757675 40.983475 11.356075 4.0
32.292252 -28.562 98.303001 1.0
-51.844666 62.849449 -13.940533 4.0
13.746775 5.61095 71.040047 1.0
13.73945 21.1373 62.5396 1.0
26.898451 -21.247499 95.037598 1.0
10.98585 -1.1242 79.026299 1.0
-25.515583 52.6138 14.813618 0.0
-42.388802 68.733505 -24.524651 4.0
-29.512264 39.008389 62.738449 0.0
-34.107025 37.145809 81.728989 0.0
-25.421051 63.886791 -24.725588 2.0
-10.29765 27.8269 36.786098 1.0
-27.037451 44.9189 49.992199 0.0
54.463451 -40.072067 110.47877 1.0
22.274651 -5.105534 83.540634 1.0
-27.034149 68.740349 -40.075699 2.0
53.451149 -33.5499 114.7018 1.0
-30.2768 85.685753 -127.08035 2.0
-31.709564 83.167877 -93.584732 2.0
-70.271606 49.964249 2.52295 4.0
-27.563148 39.910751 55.4282 0.0
-23.66625 52.250999 -2.1599 0.0
34.326851 -14.302151 97.139221 1.0
47.204777 -28.062626 112.37846 1.0
-28.907351 43.846401 65.697403 0.0
-23.633698 50.656551 24.369217 0.0
-69.577652 58.914051 -0.9653 4.0
-31.111996 39.745369 72.63472 0.0
-21.374475 57.323799 0.651 0.0
-7.06254 36.739517 23.821732 1.0
14.535475 8.508975 71.195747 1.0
-23.264999 48.66925 46.873299 0.0
-99.271965 28.199585 8.21983 4.0
57.467949 -37.834572 117.62155 1.0
-24.40135 56.644798 -12.0261 0.0
4.572875 17.206459 54.406532 1.0
-25.795685 59.935318 -10.651733 0.0
52.006874 -33.912086 110.41205 1.0
-29.732498 41.89695 60.7108 0.0
7.64165 18.676224 57.05896 1.0
-29.293049 75.085449 -99.549973 3.0
49.102699 -37.540352 105.9193 1.0
-4.100096 34.981178 32.875992 1.0
-65.627586 46.893402 2.067467 4.0
-21.99975 60.549702 -15.0201 0.0
-89.248352 35.487053 10.89205 4.0
52.602409 -35.107716 109.76605 1.0
-78.1325 47.8964 4.76565 4.0
75.703796 -46.367203 120.6566 1.0
67.745148 -41.612598 120.52255 1.0
-22.537863 48.43914 41.794289 0.0
16.611 6.09515 73.270988 1.0
-9.0526 43.0634 16.992149 1.0
-27.4613 66.121902 -36.648003 2.0
-26.795317 72.356148 -52.07122 2.0
-26.736549 44.710251 58.472801 0.0
30.692875 -2.232275 89.74955 1.0
-93.236404 27.19145 11.373449 4.0
-26.007475 69.173096 -88.790298 3.0
96.1576 -54.4799 130.35086 1.0
89.829033 -52.009132 126.63373 1.0
-23.698849 68.007805 -42.539429 2.0
-28.359385 79.7005 -86.05407 2.0
-84.461349 35.886673 10.942101 4.0
9.164285 11.028755 63.237415 1.0
-3.48265 27.499399 38.330101 1.0
52.364609 -38.993645 107.26147 1.0
4.168787 24.382824 49.028637 1.0
-32.02235 69.767464 -47.728962 4.0
52.051723 -34.944717 114.95076 1.0
51.732101 -33.444752 112.92312 1.0
86.817444 -52.428425 130.09399 1.0
33.742626 -13.933875 95.796555 1.0
60.521873 -41.904854 112.00638 1.0
-2.12445 33.010147 38.547825 1.0
-74.288849 51.627998 2.60355 4.0
-18.821276 52.59322 21.132177 0.0
-35.833248 31.289875 102.4919 0.0
-5.787825 29.495775 35.122475 1.0
-84.988907 39.377399 10.408975 4.0
19.47945 -13.4999 88.790604 1.0
21.839638 -3.9648 82.830765 1.0
-24.005701 64.79496 -26.456884 2.0
84.378754 -51.487423 128.3756 1.0
-31.997385 39.778271 71.277283 0.0
-30.177 73.93 -67.329552 2.0
-99.102654 26.446301 11.1985 4.0
-25.48185 55.484951 1.3123 0.0
