# .PCD v0.7 - Point Cloud Data file format
VERSION 0.7
FIELDS x y z label
SIZE 4 4 4 4
TYPE F F F U
COUNT 1 1 1 1
WIDTH 1428
HEIGHT 1
VIEWPOINT 0 0 0 1 0 0 0
POINTS 1428
DATA ascii
-0.1984 58.799301 42.7994 3.0
-82.054825 69.766495 -9.057501 1.0
-1.359845 67.043518 -3.743253 3.0
27.088509 -10.374571 70.139236 0.0
6.9342 69.053452 -26.262299 0.0
-47.564209 85.917381 -20.257582 1.0
10.26265 10.945145 51.132721 0.0
80.884003 -98.764725 114.19032 0.0
25.125879 4.914982 59.161457 0.0
8.8597 38.625946 12.432699 0.0
-1.661433 88.354492 -98.106689 4.0
14.965862 35.965836 23.613638 0.0
-47.682487 76.658203 -17.469032 1.0
-21.097065 63.2034 108.36354 3.0
0.610082 68.477234 -16.61133 3.0
-7.514812 60.658722 51.250175 3.0
-0.060562 97.65435 -139.99867 4.0
-9.163426 61.42387 68.236458 3.0
-14.508975 62.102959 82.345268 3.0
12.366051 45.742599 13.0135 0.0
31.12335 -38.896423 87.61425 0.0
4.685819 89.098572 -125.13194 2.0
-14.1706 57.75985 66.280502 3.0
1.743767 78.476898 -57.695934 4.0
15.4431 17.8997 40.472649 0.0
-86.512688 69.157898 -12.873297 1.0
-16.014 79.050003 -46.305698 1.0
38.282009 -33.43491 88.415924 0.0
0.473496 61.628532 17.658501 3.0
12.118466 50.611485 8.508333 0.0
64.827827 -82.367546 109.11796 0.0
-28.8855 84.455368 -32.053802 1.0
40.688225 -40.623035 93.637154 0.0
3.651753 101.70582 -152.3913 4.0
31.016314 -47.163528 91.530457 0.0
-4.3254 68.418999 -7.903866 3.0
3.3499 59.266499 12.0525 3.0
5.008635 25.290779 33.444038 0.0
34.435722 -38.3162 87.249474 0.0
7.632894 23.627405 34.909172 0.0
-61.045395 74.417244 -9.496191 1.0
-5.43715 63.515701 -9.87895 3.0
23.625648 9.3846 55.254532 0.0
-35.521427 83.880707 -26.351227 1.0
-6.191353 65.247574 -0.363986 3.0
10.242874 59.553528 -8.4837 0.0
3.004596 87.671829 -141.15399 2.0
-64.710449 75.962357 -10.4859 1.0
14.888901 1.708 57.736298 0.0
46.835953 -59.875748 99.216019 0.0
23.987509 13.143215 54.200443 0.0
38.270878 -45.449432 91.125175 0.0
57.46468 -76.951279 103.37962 0.0
39.7845 -51.195671 93.371201 0.0
1.153 79.255898 -71.061302 4.0
25.775356 -30.487854 83.856247 0.0
14.917479 27.856075 31.974934 0.0
1.920396 97.691315 -147.4615 4.0
-43.805386 75.430237 -17.366116 1.0
-0.203671 81.755569 -77.843948 4.0
0.6848 76.205902 -48.646599 4.0
48.27177 -60.695034 104.87827 0.0
2.990376 89.357094 -144.01872 2.0
39.112366 -60.017921 95.008316 0.0
21.731476 13.687374 51.29295 0.0
-40.633701 84.182297 -22.741699 1.0
29.014317 -21.654961 77.064484 0.0
60.423477 -81.416489 104.50101 0.0
25.589466 -25.387005 79.888176 0.0
-0.985475 90.149719 -106.81931 4.0
15.388462 -7.0403 65.663239 0.0
-48.395771 79.614487 -18.655781 1.0
1.300492 81.429352 -67.169846 4.0
1.5511 88.471802 -91.780098 4.0
-19.974976 78.999817 -40.667625 1.0
4.091 57.688499 -19.256901 0.0
-0.065367 62.937233 13.37875 3.0
-4.344636 60.4571 52.031067 3.0
2.505562 59.885254 -21.444569 0.0
-52.675606 76.334061 -14.67121 1.0
-1.652275 80.246651 -68.662079 4.0
10.026425 27.146076 29.874813 0.0
-4.866259 60.763 63.863899 3.0
-41.870621 77.214249 -20.100428 1.0
39.435516 -35.296169 90.784332 0.0
7.7535 67.064896 -22.62355 0.0
-7.4304 62.581848 5.25025 3.0
42.125931 -61.067013 95.698929 0.0
0.425925 50.313301 -1.3456 0.0
2.8285 77.821701 -45.829201 4.0
77.262772 -94.941696 111.47505 0.0
40.399651 -43.978722 93.4086 0.0
34.054119 -50.857971 91.907104 0.0
3.356828 93.644188 -142.67708 2.0
36.733204 -28.495609 85.137299 0.0
-7.977056 61.341003 9.337906 3.0
-9.758293 60.358101 56.14109 3.0
-29.498043 76.015106 -29.48415 1.0
-3.188861 68.802696 -10.912552 3.0
45.860069 -68.768097 97.430328 0.0
5.416485 42.29039 9.5586 0.0
20.896271 26.044786 41.458847 0.0
-36.272301 86.304298 -23.837799 1.0
10.242161 50.979488 3.029611 0.0
-20.20545 60.512779 112.9897 3.0
8.12515 31.637951 24.5569 0.0
-31.969135 86.259895 -28.402437 1.0
44.62923 -53.782196 99.50161 0.0
-18.039156 61.428448 96.11306 3.0
-1.6465 67.258301 -27.8025 3.0
-2.578892 66.869598 -32.4142 0.0
2.540662 96.965126 -124.35493 4.0
-75.44677 72.817467 -10.619662 1.0
19.48385 8.245863 51.659576 0.0
-70.0961 76.168327 -12.340533 1.0
5.597217 21.180525 38.076836 0.0
56.622574 -73.198074 108.39865 0.0
-0.717875 92.559792 -116.38625 4.0
-4.02705 73.931999 -45.133102 4.0
-58.590775 82.367516 -16.248508 1.0
32.583477 -16.894697 78.426704 0.0
0.881308 82.713509 -151.10129 2.0
-8.371644 57.202728 13.930347 3.0
4.4163 100.92107 -155.35791 4.0
1.993717 62.580971 -26.74288 0.0
18.095686 -4.887361 63.720276 0.0
4.37625 88.962502 -138.64246 2.0
62.664635 -79.877861 108.99642 0.0
11.054612 6.468703 54.813995 0.0
20.026226 29.272026 36.874748 0.0
28.198277 -27.089899 80.663727 0.0
0.1066 71.343552 -45.536499 4.0
-14.27405 83.403931 -49.03595 1.0
3.45242 99.867661 -142.28647 4.0
-3.3298 70.367172 -38.10585 4.0
11.760215 -0.178568 59.661678 0.0
45.626724 -64.909821 97.45015 0.0
1.62635 73.70575 -54.42165 4.0
-2.85695 53.50235 -4.97675 0.0
-30.113251 81.504997 -31.947733 1.0
0.791645 88.71772 -150.25827 2.0
-33.285149 75.153793 -24.2729 1.0
-20.875799 77.073402 -35.096199 1.0
11.766518 53.64336 2.591978 0.0
-10.659275 58.924561 41.49942 3.0
1.895358 99.547989 -136.02054 4.0
-58.374168 76.079216 -11.748472 1.0
-8.503434 60.409992 14.037959 3.0
42.789848 -43.583626 98.451202 0.0
6.916984 54.148186 -7.041316 0.0
-10.304717 61.937706 73.947998 3.0
-62.902084 78.749466 -13.67009 1.0
50.625198 -64.837349 105.3942 0.0
31.60675 -22.990627 79.382568 0.0
-11.578708 61.298576 70.403214 3.0
-0.638817 94.361877 -123.37338 4.0
1.8487 32.676201 26.1078 0.0
-11.359959 83.207306 -54.123405 1.0
-1.944426 93.26239 -112.68311 4.0
2.16065 71.473 -48.69125 4.0
36.748619 -55.88324 93.612373 0.0
-12.72025 53.552399 46.614025 3.0
-22.33938 78.775291 -37.573605 1.0
46.93565 -58.69735 102.08055 0.0
17.9177 14.929643 45.836922 0.0
24.382442 -18.449471 74.743149 0.0
-11.09885 53.384201 31.697849 3.0
1.514454 54.215599 -9.231037 0.0
-10.023312 60.152813 52.978313 3.0
-25.590984 80.383453 -35.766724 1.0
3.304025 68.802307 -35.529007 4.0
2.25485 36.0667 21.38575 0.0
-53.342464 85.215195 -18.706718 1.0
17.273172 26.84627 35.585972 0.0
-49.556866 74.647804 -16.1131 1.0
50.525032 -67.376892 100.0285 0.0
-43.944416 79.947807 -21.394197 1.0
11.55528 37.617413 18.499771 0.0
6.865797 91.557274 -129.41151 2.0
-24.153299 75.892746 -32.593151 1.0
1.665125 57.618752 -15.755815 0.0
-12.096226 56.229126 42.104149 3.0
71.928055 -93.548706 107.53775 0.0
20.643509 -14.248343 72.480133 0.0
-5.232875 60.66256 -3.752925 3.0
0.325275 75.133278 -42.102924 4.0
7.038149 63.130116 -18.699005 0.0
20.168909 3.714774 55.524948 0.0
-16.995125 83.47982 -45.00539 1.0
21.448088 7.636225 54.109711 0.0
-15.951856 62.53334 88.691589 3.0
7.646515 60.236183 -13.641338 0.0
-6.845375 61.76371 -0.216525 3.0
16.989681 4.113019 55.384819 0.0
-83.236313 74.914268 -13.678623 1.0
-1.607433 89.223923 -101.42545 4.0
17.717861 -0.189656 59.405243 0.0
-21.825874 83.207436 -39.456543 1.0
-2.91845 58.041252 1.03565 3.0
-3.6149 84.516296 -73.669403 4.0
-18.799805 83.8209 -42.388222 1.0
-1.8696 78.099098 -62.058701 4.0
-19.749929 60.821201 105.22104 3.0
-1.623986 60.585426 35.884987 3.0
0.517085 70.155769 -23.186073 3.0
-11.006744 60.609997 64.607994 3.0
-0.223 52.0597 -4.4003 0.0
-82.083366 70.128456 -12.087373 1.0
-10.053045 59.983612 47.011795 3.0
-3.6094 72.887299 -28.2388 3.0
9.753292 54.356323 -2.276467 0.0
-6.1336 83.569153 -62.652 1.0
8.477654 49.948551 0.711004 0.0
19.33885 21.093233 44.360996 0.0
-0.569756 90.332619 -93.154297 4.0
-0.18545 91.576447 -122.25523 4.0
11.6768 55.006199 -0.0644 0.0
53.421265 -69.323013 105.36653 0.0
-86.890335 72.355904 -13.539884 1.0
-15.766888 59.330513 81.994278 3.0
59.911194 -76.622772 108.67287 0.0
0.148438 70.081161 -42.258652 4.0
-3.401537 84.120453 -67.640785 4.0
28.672199 -4.403275 68.848877 0.0
-2.926113 55.027199 -7.818072 0.0
1.643 46.069698 6.1918 0.0
25.057026 -14.570782 71.656731 0.0
4.020758 33.942558 22.927691 0.0
-12.767473 58.435043 57.535748 3.0
-53.38242 78.978615 -15.852308 1.0
-0.74535 86.637474 -95.876701 4.0
15.576534 -12.431416 72.933723 0.0
44.213333 -58.926197 96.418236 0.0
-2.012604 60.433357 39.564198 3.0
-1.549 79.843536 -53.759109 4.0
-0.26065 96.2239 -117.55335 4.0
0.2359 84.111145 -154.85236 2.0
0.186787 95.027 -129.89693 4.0
-6.63565 79.1259 -61.014603 1.0
49.174717 -73.337135 99.203094 0.0
62.683018 -84.372482 104.58505 0.0
-6.32175 58.400414 4.305483 3.0
10.4958 58.108398 -5.941 0.0
0.972458 85.209312 -89.286232 4.0
-11.732067 80.257309 -53.729656 1.0
-4.8032 67.662773 -21.497351 3.0
-10.165051 58.951698 29.949051 3.0
2.254213 98.195343 -150.65787 4.0
3.767417 105.1132 -149.72839 4.0
9.148638 55.575211 -4.856204 0.0
0.2219 103.7882 -154.47839 4.0
29.861401 -42.333847 89.659195 0.0
1.255357 83.147133 -73.422348 4.0
54.542725 -72.494049 102.69775 0.0
-16.282959 58.957188 86.295532 3.0
-4.2668 64.609703 -27.114401 0.0
-5.136256 63.592716 16.86046 3.0
-12.513562 57.443825 50.34523 3.0
12.809692 17.249054 41.727661 0.0
7.947643 45.334938 3.743366 0.0
1.634202 63.578529 1.596908 3.0
-3.0334 86.576897 -82.503075 4.0
-3.749975 72.134712 -25.411751 3.0
-0.780376 86.350342 -78.164688 4.0
5.14875 88.298599 -127.96535 2.0
2.343172 52.382431 -6.221708 0.0
-3.796883 73.326454 -41.2075 4.0
2.33057 102.05319 -149.62053 4.0
19.053524 34.93005 28.038876 0.0
-3.3398 77.869904 -49.1105 4.0
-19.47773 62.22271 102.41977 3.0
-0.216913 98.140373 -126.42503 4.0
6.441766 55.343628 -9.611375 0.0
21.340549 23.7418 44.493797 0.0
-6.788212 61.242142 38.364239 3.0
18.253941 24.306883 39.740665 0.0
5.443879 30.276264 27.309654 0.0
-4.727855 60.791515 57.809612 3.0
16.633732 -2.933195 61.939301 0.0
-32.7705 80.727829 -29.800699 1.0
7.4367 35.9118 18.764099 0.0
0.131512 76.17675 -59.8041 4.0
15.137833 7.950738 51.713219 0.0
66.700378 -84.506371 108.9634 0.0
3.5796 93.666351 -123.99255 2.0
-14.844409 55.540253 71.958305 3.0
13.575923 -2.86648 61.752174 0.0
0.790375 70.330879 -26.826351 3.0
6.134825 27.218166 31.186884 0.0
1.132133 84.82972 -79.661133 4.0
52.644951 -76.986069 100.61612 0.0
1.901712 77.225937 -55.157238 4.0
-38.894543 80.122643 -24.515598 1.0
1.98105 92.130295 -115.63665 4.0
-3.6196 79.997398 -59.303501 4.0
7.885971 51.341476 -1.992487 0.0
0.209425 40.298698 17.909149 0.0
-0.085075 73.103493 -31.578318 4.0
10.866 49.672699 6.1571 0.0
-1.5711 48.444 5.4121 0.0
-14.8869 58.504002 73.267799 3.0
-0.10746 82.3246 -62.37114 4.0
1.642175 101.21733 -144.00549 4.0
0.163667 68.054436 -36.999252 4.0
21.107901 -22.978399 82.602097 0.0
1.804914 86.164581 -147.18512 2.0
-4.5299 69.144562 -24.458599 3.0
-3.337782 60.257843 47.792721 3.0
27.196016 -42.18288 90.539825 0.0
-1.669863 75.469131 -39.012489 4.0
21.111397 -17.701149 76.089409 0.0
29.232422 -10.372379 72.42157 0.0
-6.774283 56.234482 10.034083 3.0
-2.2117 91.060272 -104.47341 4.0
2.657767 64.205948 -31.703249 0.0
2.564032 98.184265 -131.76154 4.0
-2.1086 71.008499 -20.185801 3.0
29.61915 -32.409401 83.941956 0.0
-8.924466 80.637001 -58.555145 1.0
-0.965362 76.083389 -57.141937 4.0
1.3563 79.847626 -51.572575 4.0
8.826171 3.740358 57.158138 0.0
5.405825 89.359718 -133.54274 2.0
2.4729 24.624001 34.3713 0.0
-5.021375 65.994766 -16.998814 3.0
1.7571 64.137497 -3.1496 3.0
-1.8904 60.583801 -6.0559 3.0
-66.719177 73.730499 -7.517934 1.0
22.176155 -8.888896 67.104645 0.0
-2.505914 90.970833 -99.081383 4.0
8.378292 58.856743 -10.622013 0.0
1.088175 83.379318 -83.587097 4.0
2.692644 59.639507 4.877444 3.0
4.198267 64.625938 -26.779478 0.0
9.421043 8.611028 53.757645 0.0
-1.018875 60.2593 -20.164225 0.0
-2.28855 88.533096 -87.97403 4.0
4.334875 47.260426 1.897 0.0
56.455032 -74.01606 104.12206 0.0
-18.1938 76.603798 -40.195301 1.0
10.631012 28.537975 27.458473 0.0
-1.9451 63.705601 -16.5109 3.0
-5.577906 64.656311 10.684244 3.0
2.830012 37.337776 19.013037 0.0
-22.141602 61.18 122.26585 3.0
-11.9135 55.40229 36.94915 3.0
-21.6492 63.0769 114.7301 3.0
1.092303 66.294456 -8.536378 3.0
0.220725 89.205849 -155.17761 2.0
2.288213 97.091675 -144.75211 4.0
49.573303 -62.878189 103.79554 0.0
29.964176 -18.435375 76.3517 0.0
4.7513 69.097198 -31.048901 0.0
-0.056525 98.324173 -142.65073 4.0
43.720707 -49.342968 101.18979 0.0
5.6297 44.282249 6.35955 0.0
4.583309 88.019386 -136.08746 2.0
1.640383 99.07959 -155.14375 4.0
-16.394978 58.365238 92.000351 3.0
14.552053 38.015739 21.424698 0.0
-5.403158 64.663239 -12.514675 3.0
-4.87555 80.663895 -66.324127 1.0
4.363603 49.578949 -2.285522 0.0
10.9634 31.876326 22.220526 0.0
3.341757 40.056797 14.52428 0.0
-0.917419 84.482666 -70.173027 4.0
25.805893 -38.738285 89.09053 0.0
2.808 65.552101 -35.0723 4.0
-41.431438 86.283936 -21.213068 1.0
57.745049 -83.0867 102.917 0.0
49.752934 -64.339249 100.36501 0.0
-2.994963 81.755432 -64.334442 4.0
0.70245 77.628098 -65.06855 4.0
17.376982 32.540657 28.992855 0.0
5.179498 91.483704 -123.82359 2.0
5.185257 91.675827 -138.77756 2.0
19.450699 31.65275 33.196548 0.0
13.530637 23.219137 33.487526 0.0
39.163876 -57.10955 94.100555 0.0
0.8409 72.902397 -36.546799 4.0
55.706234 -78.291664 101.84919 0.0
0.444522 43.115681 13.382251 0.0
-77.905731 76.189148 -14.248517 1.0
2.1689 90.110901 -104.2847 4.0
-1.5911 84.904953 -86.514496 4.0
3.71075 97.6689 -137.01474 4.0
-49.594044 84.100731 -19.64949 1.0
10.851566 33.758972 20.188381 0.0
-4.652137 64.030098 14.269225 3.0
75.337708 -93.37075 109.96327 0.0
15.286192 14.235224 44.573502 0.0
29.043173 -14.881766 74.287071 0.0
-0.10945 90.765503 -95.839752 4.0
30.200378 -6.173769 71.885597 0.0
-0.0181 94.766098 -111.5912 4.0
-0.3849 55.612999 -10.7094 0.0
-5.242007 60.873322 45.380871 3.0
1.407412 44.257874 9.668423 0.0
12.118617 1.977333 58.009739 0.0
-10.406942 58.608604 32.708443 3.0
-14.535007 55.135239 66.434929 3.0
31.501148 -9.3135 75.890854 0.0
1.651506 78.279678 -60.347961 4.0
27.770363 -0.56236 64.946938 0.0
-89.1045 67.954437 -13.168659 1.0
-55.310207 83.56382 -17.521629 1.0
-2.666565 65.954742 3.311707 3.0
-3.618113 67.722046 -5.462267 3.0
41.263515 -38.569321 95.257385 0.0
-6.6891 62.450802 27.738501 3.0
-3.14465 74.235886 -34.1408 4.0
-3.269914 57.571602 -13.018707 0.0
0.1976 101.84038 -151.14679 4.0
52.176498 -67.261597 104.3091 0.0
12.542055 43.607101 14.612261 0.0
-0.723058 63.816769 10.8813 3.0
-71.25013 72.978661 -7.870506 1.0
49.983601 -65.554199 107.8361 0.0
-33.529209 84.182602 -28.0476 1.0
-3.868075 75.198914 -48.124649 4.0
52.243961 -69.509544 108.76624 0.0
-1.225145 77.584 -47.112152 4.0
73.060425 -91.859749 112.07737 0.0
-6.792339 61.509972 69.40329 3.0
29.252708 -34.816833 85.560822 0.0
55.227901 -81.254097 102.6633 0.0
0.425839 49.035107 1.044447 0.0
3.5824 104.4406 -152.8416 4.0
-10.0131 59.721153 39.09935 3.0
-8.8916 53.538651 22.9818 3.0
0.62219 63.60466 7.942314 3.0
42.414097 -55.125504 95.076691 0.0
-4.115483 61.57835 33.188351 3.0
-3.475884 77.84539 -51.768345 4.0
-6.764836 61.175552 61.123711 3.0
0.238675 93.7155 -108.30856 4.0
-67.33316 75.439835 -10.239676 1.0
2.4 83.114067 -144.08624 2.0
-20.509974 61.00465 110.45793 3.0
1.60135 63.606815 -8.11785 3.0
18.369301 36.620499 26.1115 0.0
32.01981 -29.176884 82.133621 0.0
-16.018776 76.700714 -44.571774 1.0
-0.501623 65.579399 1.606288 3.0
-12.4422 56.250946 44.671379 3.0
-9.698417 83.145477 -59.232983 1.0
1.037125 100.3943 -138.6731 4.0
-13.356766 56.609333 55.476151 3.0
24.962307 -11.615999 69.172348 0.0
-36.68499 80.322906 -26.174112 1.0
-26.846209 84.245888 -33.848434 1.0
22.083839 -21.52903 79.258057 0.0
1.931563 28.829437 30.211376 0.0
9.254864 13.792873 47.781021 0.0
26.9494 -3.5492 66.616203 0.0
-46.319145 80.04364 -20.11425 1.0
2.8461 79.637703 -147.00369 2.0
68.795197 -89.022789 106.68954 0.0
0.863597 96.129494 -119.86224 4.0
-87.425301 67.486 -11.1516 1.0
26.258333 -34.957699 86.742699 0.0
0.9382 67.07692 -18.731152 3.0
65.947563 -86.958679 105.75613 0.0
21.217094 16.016304 50.307659 0.0
29.887722 0.483042 66.012985 0.0
-0.593575 87.719498 -84.061096 4.0
20.417526 17.30014 47.784554 0.0
3.784251 83.121124 -138.80757 2.0
-45.356697 84.774567 -20.856985 1.0
-10.878176 85.036652 -52.005699 1.0
8.202357 93.366127 -127.94747 2.0
32.019398 -13.806 77.542877 0.0
1.724508 90.787735 -111.64589 4.0
-9.055574 55.90873 18.462299 3.0
-6.20815 63.100677 -5.68295 3.0
2.206721 74.844299 -50.170738 4.0
-3.3636 78.807098 -56.938923 4.0
4.071863 55.095058 -13.619592 0.0
-1.239562 74.359627 -51.940399 4.0
6.542214 33.032562 23.028704 0.0
-5.3233 58.5462 1.6966 3.0
-31.691223 77.16272 -28.192245 1.0
17.664787 11.016072 48.129868 0.0
-3.7188 67.448097 -26.3442 3.0
-2.303875 65.50415 -21.849976 3.0
-0.0487 62.065701 -10.5935 3.0
3.621775 79.601448 -142.18378 2.0
3.135925 21.680992 37.711754 0.0
-0.5848 58.486877 -16.542 0.0
-2.966925 86.284592 -79.927094 4.0
17.547935 -10.816917 69.772598 0.0
71.636597 -90.0289 110.8613 0.0
88.334198 -104.7376 112.9479 0.0
-7.083104 63.179585 1.88157 3.0
59.535461 -79.069954 104.18712 0.0
33.62167 -19.10775 79.704178 0.0
-1.9252 68.120697 -30.158199 3.0
-2.331431 59.340931 53.061371 3.0
-62.052177 83.469711 -16.148397 1.0
-4.09625 81.876999 -68.558052 4.0
-55.760963 78.779541 -14.865795 1.0
23.571775 -25.774899 81.976608 0.0
1.6446 61.81105 -24.360401 0.0
1.417617 88.874336 -101.88417 4.0
14.194749 20.118967 37.884136 0.0
48.144215 -69.373833 98.296387 0.0
-6.072605 65.580872 -3.679975 3.0
-0.558892 83.340164 -67.801025 4.0
4.466225 84.118942 -135.2561 2.0
6.4832 93.605202 -124.17153 2.0
-22.2857 63.0144 117.6358 3.0
0.2974 78.083878 -53.006401 4.0
-13.0453 79.902298 -51.497501 1.0
-1.655112 94.340622 -118.55066 4.0
4.429543 61.061321 -22.539427 0.0
-13.749374 54.205376 58.662998 3.0
-0.900625 85.615311 -75.732681 4.0
-60.415474 78.578934 -13.518993 1.0
-22.005804 80.623146 -40.039669 1.0
0.525497 84.845619 -152.35811 2.0
29.485199 3.3801 62.307152 0.0
0.927929 80.902252 -57.19796 4.0
-11.496233 55.377449 33.464043 3.0
18.113083 -13.821493 73.611481 0.0
20.592833 -19.00766 78.171082 0.0
-2.6419 61.769997 -22.977612 0.0
-51.924404 80.328972 -17.514967 1.0
-4.115711 65.167488 8.148733 3.0
-5.0884 56.762798 5.7766 3.0
-1.713625 71.546898 -22.699625 3.0
40.659698 -34.162601 92.6241 0.0
-15.360545 56.627426 77.129448 3.0
-7.504433 61.506332 30.096634 3.0
-0.24755 96.143898 -132.0717 4.0
1.199249 63.977634 -28.839743 0.0
17.291649 -15.54465 76.980598 0.0
-2.858967 77.002129 -43.898937 4.0
1.83075 88.938477 -97.888947 4.0
-7.89118 61.405804 65.60537 3.0
-6.187381 60.986656 43.098557 3.0
-74.551071 74.230865 -12.471342 1.0
1.855963 62.866455 4.077713 3.0
41.451355 -42.95388 95.446259 0.0
2.6022 93.565598 -119.4422 4.0
2.9485 95.491501 -135.5699 4.0
-9.602075 83.781403 -55.810474 1.0
4.634806 93.392441 -140.44958 2.0
7.1369 42.24305 7.797084 0.0
-10.650267 60.57695 62.176888 3.0
-92.210312 66.171921 -11.741858 1.0
-6.9036 57.441002 7.7446 3.0
38.622746 -24.480204 84.403214 0.0
-1.389243 81.199066 -59.619591 4.0
-1.955408 64.649796 -28.888391 0.0
10.06025 20.1661 38.747944 0.0
-0.0856 97.147301 -137.1503 4.0
-18.751625 60.705952 100.63935 3.0
-64.663467 77.425949 -12.455269 1.0
80.954727 -97.922348 111.7226 0.0
-6.190033 81.412621 -63.810299 1.0
2.894733 74.296562 -44.125134 4.0
30.549351 -2.3465 68.79055 0.0
-17.604664 64.243347 97.893265 3.0
14.5712 34.085911 25.137991 0.0
11.345855 41.48035 14.502931 0.0
-2.300631 70.84668 -41.099716 4.0
-2.586717 66.874969 -1.623883 3.0
15.248951 31.35206 28.550177 0.0
-23.25515 83.782745 -37.565132 1.0
84.1007 -100.43835 112.1235 0.0
14.121575 12.106174 47.483498 0.0
0.312258 70.198624 -32.337769 4.0
6.657206 92.889465 -136.64728 2.0
34.075432 -30.583149 83.938187 0.0
42.808842 -47.156124 97.586761 0.0
1.2094 86.004501 -94.580803 4.0
3.937005 71.350868 -35.804794 4.0
-15.510468 64.3032 93.273369 3.0
0.802017 59.646088 28.894121 3.0
-14.83202 81.338707 -50.176506 1.0
23.017937 -27.752632 84.048996 0.0
-1.124 85.425499 -91.178703 4.0
0.6665 64.132797 -14.369 3.0
2.063075 60.056549 0.080825 3.0
22.63274 -10.915943 68.782379 0.0
-79.651398 70.481789 -8.558982 1.0
20.565599 -12.388494 70.486008 0.0
-14.119975 56.607037 62.126362 3.0
14.91612 23.594543 35.790382 0.0
-10.7931 58.397202 37.241299 3.0
-40.797798 81.788544 -23.525776 1.0
20.893272 19.76667 47.262421 0.0
-74.356583 78.53598 -14.91269 1.0
33.377697 -34.353535 84.856781 0.0
-0.5041 100.91305 -147.33191 4.0
-12.9991 58.720501 60.8778 3.0
9.6798 36.767101 15.308149 0.0
33.40947 -26.108027 81.87941 0.0
-0.53115 92.943176 -103.14043 4.0
-0.95385 98.351028 -135.08597 4.0
-12.818 83.6325 -50.980701 1.0
5.780954 38.603577 15.088406 0.0
-38.302849 85.052299 -23.547298 1.0
2.282281 80.641151 -151.78357 2.0
71.507698 -91.190872 107.59558 0.0
-7.35891 62.005882 21.179356 3.0
-35.2001 76.44619 -23.650417 1.0
7.385979 22.153875 36.822773 0.0
-0.339175 60.226398 30.949924 3.0
-2.5495 87.712997 -90.455246 4.0
17.994608 18.1366 43.698975 0.0
11.74802 -4.069815 62.814445 0.0
-8.211712 61.060043 11.759545 3.0
-6.87175 84.185806 -60.179211 1.0
7.178 12.091 51.932854 0.0
6.8112 16.491625 45.277451 0.0
5.6582 71.7061 -31.4977 0.0
44.164417 -53.405319 97.158508 0.0
40.754902 -65.348602 96.601402 0.0
27.177784 -29.119467 82.173203 0.0
3.204081 95.790733 -129.28383 4.0
-2.5701 58.858501 -1.2554 3.0
4.438734 63.082302 -24.540335 0.0
-1.549833 91.899567 -110.75596 4.0
-66.723984 82.064301 -15.951024 1.0
13.0594 47.910099 12.3369 0.0
25.317215 -20.300049 76.165413 0.0
2.222 70.63475 -46.473049 4.0
-2.20055 92.098145 -107.41425 4.0
6.765975 49.987724 -3.854275 0.0
-38.983822 78.30658 -22.922131 1.0
-11.004437 54.762512 29.489521 3.0
-21.0812 85.993698 -37.805901 1.0
1.3125 82.388153 -75.821152 4.0
-84.215752 69.133476 -11.82771 1.0
85.599449 -101.98732 114.52632 0.0
3.30055 72.641052 -39.882275 4.0
-13.857025 63.356201 85.383362 3.0
-3.6299 63.158249 -12.97225 3.0
9.188174 62.063305 -13.835402 0.0
1.2207 86.644798 -97.188004 4.0
-77.618439 72.22599 -11.724752 1.0
-11.679383 58.595062 48.02277 3.0
17.641201 22.154762 40.622551 0.0
-21.461601 61.042252 118.76285 3.0
32.773254 -48.735279 91.448692 0.0
-1.3583 65.132797 6.1995 3.0
-9.269315 60.343567 42.912403 3.0
-3.612217 80.102402 -70.678467 1.0
-37.930817 75.871651 -19.037018 1.0
-49.51149 81.714615 -18.807011 1.0
9.333366 42.243092 10.310609 0.0
1.0139 93.714546 -126.93805 4.0
46.048508 -58.044262 97.964478 0.0
-57.666512 84.396896 -16.997746 1.0
5.4007 36.88295 18.10005 0.0
-0.505038 73.988792 -33.715378 4.0
-3.98 70.465912 -18.87348 3.0
-2.8829 61.3297 -8.4767 3.0
34.453964 -56.136547 94.004707 0.0
-15.436707 58.646603 78.312347 3.0
4.0123 96.102699 -121.6067 4.0
35.907955 -22.606613 82.174408 0.0
-8.1205 61.139568 25.4807 3.0
13.461012 -6.142111 64.650131 0.0
10.999675 11.839312 49.099541 0.0
3.62425 54.089127 -10.322275 0.0
2.183637 83.503983 -155.98502 2.0
-11.884445 58.678467 52.337337 3.0
1.771943 91.559113 -147.49976 2.0
4.853256 84.494919 -132.42267 2.0
51.969387 -67.648239 102.0014 0.0
5.162653 48.211739 -0.400594 0.0
6.106751 14.3079 48.718643 0.0
1.411125 82.017693 -148.89653 2.0
-1.979353 60.144382 42.134201 3.0
3.364 96.857697 -139.89667 4.0
54.209354 -70.656342 107.2138 0.0
-8.9318 60.8834 60.339249 3.0
3.676283 100.34772 -147.2081 4.0
-1.048975 94.12545 -120.9505 4.0
5.534155 56.846607 -14.260123 0.0
0.156875 72.632553 -48.9048 4.0
-10.257117 57.527359 25.370241 3.0
-3.133567 76.006912 -53.13615 4.0
7.581897 30.327007 26.38586 0.0
-12.816146 62.326298 79.043251 3.0
0.61845 88.410667 -89.647491 4.0
5.802606 18.944963 41.307186 0.0
-2.606693 62.066994 24.78377 3.0
-4.025208 68.396851 -33.360802 4.0
-8.629843 60.540451 48.739285 3.0
-18.915604 79.55188 -42.76981 1.0
8.868475 93.950195 -132.74298 2.0
11.277964 45.611572 10.905256 0.0
14.815479 3.494375 56.28302 0.0
2.611986 75.794838 -47.419468 4.0
-2.8442 89.375801 -92.564003 4.0
-4.014653 60.384975 54.389793 3.0
3.36215 31.232075 27.109138 0.0
58.975121 -76.844498 105.10692 0.0
0.405375 77.222656 -50.880074 4.0
2.985463 46.678936 3.659622 0.0
-0.718132 88.359131 -86.260307 4.0
-24.309126 86.191978 -34.536686 1.0
-13.003089 77.151184 -50.197929 1.0
1.3072 59.735077 24.6474 3.0
68.074661 -85.964935 110.07431 0.0
-1.009025 62.3489 -24.50605 0.0
-5.827877 64.973816 5.784398 3.0
1.98631 59.686272 20.752151 3.0
-70.934967 80.664429 -15.162406 1.0
18.429649 13.107594 47.445881 0.0
2.848863 70.497726 -40.916489 4.0
-1.9528 73.848999 -49.782299 4.0
-68.03096 80.284599 -15.252699 1.0
92.688034 -105.82671 114.53755 0.0
2.970766 91.874283 -144.06424 2.0
28.485847 -17.244684 74.834167 0.0
-3.9422 70.041801 -15.6175 3.0
6.26005 51.933277 -7.32375 0.0
-9.00108 60.418594 34.347061 3.0
16.918417 6.83005 52.596478 0.0
6.818445 64.909019 -21.545794 0.0
12.10825 20.877651 37.391403 0.0
1.079133 99.091721 -152.38391 4.0
0.190906 66.637306 -5.4333 3.0
0.56905 67.662155 -23.1523 3.0
-2.540017 83.426865 -77.330093 4.0
-14.057958 54.453117 61.137825 3.0
-16.864868 61.329407 90.456985 3.0
1.69305 61.485172 12.842401 3.0
6.444052 61.354431 -17.210287 0.0
-6.748727 61.740734 32.221661 3.0
12.092958 39.477581 17.320589 0.0
2.229181 97.330284 -126.85452 4.0
-3.565863 68.165176 -28.592926 4.0
1.853047 91.193199 -109.36308 4.0
41.15538 -46.347488 94.005081 0.0
-22.481501 61.387199 126.6341 3.0
-1.3226 66.305801 -24.8111 3.0
11.060361 48.407177 8.296732 0.0
67.703979 -85.906631 112.34738 0.0
36.434566 -33.410809 86.892799 0.0
-2.895622 82.406525 -72.839783 4.0
-0.66205 100.3688 -143.43326 4.0
25.090832 -31.996187 85.4683 0.0
0.18795 87.133148 -156.0773 2.0
0.849367 88.999702 -106.17453 4.0
51.764153 -69.548904 100.6812 0.0
-64.039154 81.395325 -15.641047 1.0
10.754568 16.010187 43.89127 0.0
8.2828 16.666901 43.550701 0.0
1.6234 60.186199 -2.1887 3.0
-33.423683 79.284454 -28.027866 1.0
2.910633 58.969452 16.2208 3.0
-13.441662 53.852913 53.652786 3.0
4.950453 87.114388 -131.75235 2.0
10.39712 18.722462 40.446251 0.0
11.005899 14.506474 45.667763 0.0
2.588483 71.842445 -44.607098 4.0
33.33474 -21.768379 80.148331 0.0
11.869133 22.380394 35.577698 0.0
14.515957 -9.373446 68.741158 0.0
29.291826 -8.212071 71.647194 0.0
13.398222 13.849088 45.722603 0.0
-56.186951 74.970535 -12.058395 1.0
20.1628 30.530001 35.002399 0.0
-28.389709 77.291214 -31.022953 1.0
-4.79339 62.491207 24.397295 3.0
22.612873 -0.122176 60.382374 0.0
0.4865 98.799454 -130.6711 4.0
1.5221 90.110275 -99.926186 4.0
73.915703 -94.317001 108.2207 0.0
76.441193 -95.323875 113.91592 0.0
7.88556 18.194429 41.90918 0.0
1.810092 102.77206 -153.08084 4.0
-18.556917 61.744766 98.563789 3.0
12.104012 26.43882 29.250755 0.0
23.252953 -3.671383 63.225685 0.0
-5.4074 66.946846 -12.777066 3.0
-2.940116 76.759315 -55.787167 4.0
-4.389717 60.536053 49.798744 3.0
-3.800737 61.911983 28.721138 3.0
-1.46435 96.141251 -125.12344 4.0
-5.0503 66.626801 1.641 3.0
-4.023875 69.866638 -35.940491 4.0
-7.638962 62.030945 18.70541 3.0
-1.6853 68.419891 -9.31122 3.0
-45.484905 82.064171 -20.820875 1.0
-2.55125 80.33754 -66.625153 4.0
1.175 85.694 -81.812721 4.0
26.261806 -12.742722 70.927872 0.0
1.3419 56.596252 -13.785016 0.0
26.671225 -7.885625 68.634674 0.0
1.809 94.907402 -133.75191 4.0
-75.410255 75.798691 -13.792688 1.0
16.887541 29.348974 32.353245 0.0
37.047024 -47.288845 91.363503 0.0
1.342328 68.140816 -38.880775 4.0
1.6381 62.415398 -6.141575 3.0
-71.987312 78.626244 -14.679447 1.0
13.715801 25.635998 32.360283 0.0
22.663475 17.678368 51.561501 0.0
2.635 77.252899 -50.043999 4.0
-30.401478 85.133591 -30.545929 1.0
2.136856 39.72023 16.368162 0.0
-18.31015 86.119247 -41.50275 1.0
1.9365 92.20192 -122.10695 2.0
20.740749 -6.14735 64.836655 0.0
0.209774 62.294537 15.481645 3.0
16.359337 35.738987 25.321262 0.0
-3.977673 71.554657 -29.969326 3.0
-4.699306 66.976089 -0.595539 3.0
1.424574 81.350693 -72.14241 4.0
-3.70937 69.28244 -13.0081 3.0
-15.909858 59.992035 84.199539 3.0
6.822325 34.384514 20.878986 0.0
8.65465 64.197006 -17.266693 0.0
1.278054 65.657104 -32.795662 0.0
1.724 92.108398 -105.2923 4.0
-3.016442 60.085758 -19.069401 0.0
1.4754 95.041603 -124.4588 4.0
-0.89575 83.093033 -81.887573 4.0
-53.723503 74.754501 -13.553772 1.0
-8.296913 61.8088 74.837509 3.0
-14.419167 57.908298 68.536438 3.0
4.091423 73.323967 -37.946766 4.0
-8.777038 60.6418 22.372137 3.0
24.577963 -23.550312 78.880554 0.0
18.731461 -8.935679 67.410843 0.0
0.507667 60.123993 26.725473 3.0
2.2084 92.4049 -113.4469 4.0
-6.004675 65.561371 -8.785749 3.0
-0.536075 92.218445 -100.32825 4.0
-28.055908 87.111351 -32.23756 1.0
-2.578071 61.449574 30.501917 3.0
12.022812 31.321625 24.941069 0.0
3.068881 81.754341 -142.36189 2.0
-0.748458 79.06897 -67.055702 4.0
2.556308 60.629143 9.733675 3.0
-1.651233 50.779003 -0.556233 0.0
41.119698 -49.527763 93.82309 0.0
-0.8146 99.702515 -139.60046 4.0
3.73223 65.961327 -30.655731 0.0
22.892546 -14.593804 71.926384 0.0
0.423027 59.557018 33.234829 3.0
0.449834 95.353302 -115.68584 4.0
-0.2066 98.555748 -128.56436 4.0
15.461854 10.834471 48.636169 0.0
1.45015 80.262466 -69.153328 4.0
-3.014798 75.020859 -37.209965 4.0
-1.0939 61.759224 22.923651 3.0
-8.174567 85.646729 -55.808563 1.0
9.80725 40.588753 12.91415 0.0
-3.667811 75.014236 -39.843208 4.0
45.62534 -54.635841 101.23395 0.0
7.0891 40.493702 11.3955 0.0
-9.2542 58.600452 19.120201 3.0
4.4468 58.9725 -21.7645 0.0
0.5075 68.262199 -14.2016 3.0
30.604176 -25.084934 79.604141 0.0
39.323639 -28.080347 87.339714 0.0
41.330132 -52.696701 93.971397 0.0
-0.384177 45.774429 9.400003 0.0
25.671835 1.632334 61.822388 0.0
-7.192656 63.113239 10.303835 3.0
4.657233 41.369267 11.364867 0.0
0.48236 65.87191 -3.374505 3.0
-2.29478 61.70116 27.072681 3.0
24.740583 -7.371784 66.461082 0.0
10.381936 25.366993 32.050632 0.0
69.358795 -87.472153 109.076 0.0
58.198799 -74.830597 108.3568 0.0
-3.8163 75.197403 -43.074299 4.0
27.661158 8.013258 58.571934 0.0
1.4338 66.503403 -15.9907 3.0
61.746712 -86.267525 104.15995 0.0
32.404202 -52.179024 92.819572 0.0
-4.036238 71.964813 -32.36747 4.0
27.726768 -31.384003 83.70359 0.0
10.681175 46.317951 8.844687 0.0
1.960014 99.048752 -133.92883 4.0
20.8654 5.707771 55.113449 0.0
20.543266 1.926 56.9063 0.0
-9.878578 59.361393 26.421532 3.0
-0.13865 59.579166 37.091217 3.0
-15.618862 57.203152 81.713036 3.0
-12.008238 53.372227 37.663761 3.0
-15.8089 83.6539 -47.0429 1.0
-10.991537 62.602924 77.948257 3.0
16.0394 27.184299 33.7089 0.0
5.114611 72.629837 -33.811771 4.0
8.939286 34.466248 19.496933 0.0
-36.644371 76.434952 -21.903307 1.0
18.351158 31.385168 31.3776 0.0
24.638613 -1.975993 63.187931 0.0
-1.9493 96.217003 -122.6625 4.0
-1.385546 49.099129 3.381571 0.0
5.11425 59.298698 -17.96825 0.0
5.740375 67.35672 -26.79089 0.0
0.892893 63.779678 5.757433 3.0
3.377963 74.741547 -41.417473 4.0
1.631417 79.006218 -62.48885 4.0
-12.388809 63.142906 81.926727 3.0
-22.880276 61.824825 130.98767 3.0
-62.599953 75.656303 -10.33527 1.0
3.47435 97.913147 -148.91245 4.0
34.139595 -44.905029 90.118034 0.0
14.6444 15.707 42.461601 0.0
7.940356 27.588905 29.9823 0.0
77.335251 -97.119904 109.2071 0.0
-17.248899 79.071548 -44.486298 1.0
-10.442125 55.383049 26.511574 3.0
31.094551 -33.768383 84.723999 0.0
46.522675 -56.606075 102.09058 0.0
-53.552872 82.158653 -17.595009 1.0
-0.9252 59.295792 44.797791 3.0
1.0689 91.942154 -117.8007 4.0
11.901749 34.348755 22.045578 0.0
-7.733325 61.624275 7.124125 3.0
-5.246318 62.792633 21.716688 3.0
61.612713 -79.983856 105.62938 0.0
-3.998279 61.40181 35.450165 3.0
12.55285 29.498451 27.171749 0.0
2.335777 87.728897 -145.48286 2.0
-3.35685 58.525948 -14.944201 0.0
4.053893 27.103561 31.565655 0.0
-14.565411 77.802246 -47.586849 1.0
-0.094915 96.763405 -121.64832 4.0
3.023485 57.720985 -17.431784 0.0
-20.208847 83.803894 -40.779694 1.0
7.511703 15.127519 47.069077 0.0
5.892154 90.450706 -127.89713 2.0
-16.335526 60.741112 87.425903 3.0
-5.9776 63.6693 -7.704401 3.0
-14.252256 56.588848 64.234528 3.0
62.715385 -79.339478 111.16966 0.0
-10.66715 80.72065 -55.517151 1.0
-12.867433 59.4021 65.308228 3.0
16.297619 19.82909 40.472721 0.0
2.785128 85.563622 -141.96571 2.0
-67.623421 78.560432 -14.108098 1.0
79.347321 -96.49408 112.18369 0.0
-8.65377 56.613617 16.1194 3.0
-7.717092 56.585205 12.025234 3.0
2.32285 47.880375 1.8914 0.0
14.712132 29.2899 30.447701 0.0
-42.496372 81.044029 -22.532969 1.0
-15.448162 80.361656 -48.178013 1.0
7.841534 38.369049 14.253642 0.0
-0.483737 95.372589 -113.55325 4.0
34.890953 -49.009911 91.364288 0.0
-6.5052 63.291084 14.92348 3.0
-0.9126 54.597099 -8.7512 0.0
-1.957717 68.940353 -37.411449 4.0
-13.045833 85.51413 -47.917675 1.0
14.409588 43.520905 17.068485 0.0
-2.3032 72.513596 -45.652199 4.0
2.350078 90.47522 -145.75082 2.0
13.5798 46.732601 14.4033 0.0
0.440633 88.746262 -152.85896 2.0
1.1023 67.791397 -20.725 3.0
-6.3455 85.696701 -58.737499 1.0
10.348013 4.736604 56.122902 0.0
3.705225 45.302383 5.580798 0.0
4.1011 107.2668 -149.0527 4.0
4.1098 18.42905 42.419899 0.0
3.733133 88.71875 -123.31041 2.0
5.82785 53.261948 -10.027237 0.0
-3.051175 79.835335 -63.51236 4.0
3.632972 98.006737 -143.21761 4.0
0.51839 71.594009 -30.26807 3.0
23.617874 -21.560242 77.842125 0.0
-7.393237 60.367664 4.643413 3.0
-18.1376 82.237999 -46.2342 1.0
-2.143325 88.09417 -94.857468 4.0
30.974249 -30.973415 83.023254 0.0
6.894029 92.360161 -134.64389 2.0
21.125259 -1.581311 60.318127 0.0
-73.599541 73.231018 -9.580326 1.0
-1.09625 81.131599 -73.897301 4.0
-65.580948 74.680283 -8.982633 1.0
-13.75915 60.9785 75.037003 3.0
11.8867 -7.005 65.909203 0.0
43.168892 -50.611305 96.610825 0.0
0.771133 89.785454 -108.10864 4.0
-43.324177 85.250427 -21.23233 1.0
40.383568 -38.662842 93.011124 0.0
-9.986883 57.228947 23.272736 3.0
-10.013523 61.164997 66.356339 3.0
24.296474 -0.109643 61.722012 0.0
-13.051047 60.111053 69.212318 3.0
-22.622152 76.745934 -33.808132 1.0
45.028637 -70.576775 98.017349 0.0
-29.165293 79.351395 -31.730026 1.0
15.349848 41.113258 19.836117 0.0
4.177733 99.459229 -151.54871 4.0
13.43639 27.202736 30.641594 0.0
43.924408 -65.99501 96.822571 0.0
-1.9065 90.933304 -97.098747 4.0
-40.426926 77.894348 -21.494492 1.0
36.113869 -18.639175 81.494675 0.0
7.2906 67.993652 -24.5198 0.0
0.158275 79.388924 -56.014977 4.0
-3.742975 84.138931 -65.441612 4.0
31.01687 -40.947079 88.648766 0.0
-46.9053 78.160553 -18.667301 1.0
-1.19751 62.80653 17.355974 3.0
-1.1762 77.9608 -49.169201 4.0
24.694628 -16.609137 73.31369 0.0
9.835142 -0.821683 60.049416 0.0
-17.5931 59.397202 96.6157 3.0
0.190858 83.912033 -71.82103 4.0
14.9406 32.822498 27.0042 0.0
65.137611 -82.451767 111.80658 0.0
4.68555 17.121651 44.8284 0.0
1.60575 79.845703 -65.884903 4.0
0.239325 74.837509 -55.703617 4.0
-45.705494 76.075233 -17.833555 1.0
61.339024 -78.301323 108.9933 0.0
3.922075 64.946335 -28.837059 0.0
-1.2511 64.166504 -18.3936 3.0
1.9787 94.072502 -129.5603 4.0
35.02 -40.128201 88.250366 0.0
-59.642372 80.623512 -15.386897 1.0
-9.64935 55.425365 21.887228 3.0
1.656103 60.411346 18.840197 3.0
0.942021 82.080872 -65.221725 4.0
-1.986775 72.454819 -27.055384 3.0
-5.38 66.282593 -14.997012 3.0
16.654547 18.158445 42.143963 0.0
-25.725519 77.195213 -32.806339 1.0
24.649622 6.35463 57.700092 0.0
1.038595 90.748207 -150.42531 2.0
-17.376678 62.624149 94.582436 3.0
-57.913498 77.781647 -13.368278 1.0
0.58303 87.036591 -151.41568 2.0
23.1882 11.06795 54.144753 0.0
-2.628845 85.957695 -84.722572 4.0
7.341125 57.163277 -10.113026 0.0
-26.792765 79.876984 -34.125 1.0
-4.5743 66.129776 -19.116138 3.0
16.311611 -11.553953 71.23967 0.0
2.587721 33.717148 24.367458 0.0
0.096369 68.260559 -27.437098 3.0
-1.6283 56.635601 -12.2412 0.0
16.386288 -5.569438 64.655609 0.0
-3.789333 73.332001 -36.150307 4.0
-9.51785 58.912716 21.578724 3.0
30.105156 -37.315239 86.820618 0.0
-1.8742 65.665588 -30.754313 0.0
39.735451 -45.70805 92.561005 0.0
8.8123 46.671951 5.0133 0.0
1.024628 84.11116 -148.61807 2.0
9.10544 45.114559 7.22796 0.0
20.5648 13.302401 49.663353 0.0
40.073997 -29.9587 89.137352 0.0
1.308125 86.634148 -90.738403 4.0
19.368259 16.243008 46.390732 0.0
-0.0581 74.717102 -37.824902 4.0
89.863503 -103.9421 114.6191 0.0
30.487892 -10.073543 74.299797 0.0
-20.398716 61.869392 106.83734 3.0
1.208413 66.426346 -11.67581 3.0
-2.642121 86.600449 -86.895538 4.0
-0.761279 62.220367 19.420984 3.0
-0.426796 70.134132 -18.227993 3.0
37.0275 -20.4147 82.188499 0.0
-8.848 60.253399 17.9011 3.0
3.81525 61.903599 -27.326851 0.0
7.7484 7.8302 54.822399 0.0
24.618786 -5.517411 65.265961 0.0
80.103798 -99.352097 110.2731 0.0
59.683525 -76.419937 110.67766 0.0
27.126526 -21.163324 76.470856 0.0
38.405052 -53.112602 93.082352 0.0
-7.604825 55.147999 14.378726 3.0
27.54295 -22.94215 77.838448 0.0
7.8032 48.132248 1.3052 0.0
34.395611 -52.914597 92.539215 0.0
-4.16255 67.348 -31.246901 4.0
82.764297 -99.358078 113.19408 0.0
-17.62043 60.438644 94.318611 3.0
-85.087852 73.593933 -13.603784 1.0
15.224356 22.107023 37.347374 0.0
-72.13974 75.66008 -12.542684 1.0
5.888338 68.812767 -28.328125 0.0
-7.7561 61.6506 36.634701 3.0
15.975846 37.971474 22.940296 0.0
52.925167 -75.069969 101.24067 0.0
-1.448025 97.161873 -127.69574 4.0
2.103384 74.400948 -52.139774 4.0
-50.929237 76.097168 -15.660175 1.0
54.282486 -70.881447 103.88641 0.0
4.794451 86.29171 -128.58792 2.0
1.716383 38.795998 18.112949 0.0
1.807829 76.794754 -58.867817 4.0
-3.6111 64.581734 -17.281376 3.0
1.381944 87.626808 -148.66933 2.0
-3.7296 71.554703 -39.682701 4.0
37.897667 -43.596268 90.194366 0.0
-3.609354 60.254349 -5.060433 3.0
-15.0162 63.438202 87.0243 3.0
-7.85655 58.86285 8.799499 3.0
-13.69355 56.006828 57.739399 3.0
-0.890894 69.715347 -15.575291 3.0
13.822973 0.557604 59.034443 0.0
6.3385 58.6521 -13.894849 0.0
12.824699 6.8154 53.9286 0.0
70.351044 -89.023521 112.03341 0.0
4.586892 50.4603 -4.077292 0.0
1.25035 83.220322 -78.465134 4.0
3.71675 68.799149 -33.398945 4.0
22.3402 12.606674 52.871826 0.0
-4.4755 84.49015 -63.309849 1.0
-8.622091 60.508438 54.370823 3.0
36.137589 -45.663811 90.521461 0.0
-70.469894 74.803055 -10.382364 1.0
-1.639383 93.252884 -114.66452 4.0
2.757837 60.028351 6.899233 3.0
-1.024525 97.774628 -133.16837 4.0
6.867743 43.980068 4.748811 0.0
-3.0656 64.806198 10.0914 3.0
32.723747 -46.355484 90.698318 0.0
-19.477774 81.872154 -43.277725 1.0
-10.000816 61.812775 71.652512 3.0
19.271368 -18.926966 79.672165 0.0
-11.017474 59.955097 57.687122 3.0
-36.870697 84.436798 -24.802675 1.0
-15.456066 85.621689 -44.559219 1.0
87.012764 -102.98688 112.83149 0.0
5.818514 62.877632 -20.467018 0.0
-6.03855 60.880348 -1.81725 3.0
4.1184 98.175903 -141.19521 4.0
2.100275 100.33511 -140.36316 4.0
-14.12405 61.099998 76.996597 3.0
-16.061131 57.818176 87.920273 3.0
44.150398 -51.7542 100.16083 0.0
33.762211 -36.608845 86.306664 0.0
-1.250569 66.248276 -0.165044 3.0
-0.58945 87.903473 -100.04417 4.0
-1.86915 63.805244 13.421113 3.0
37.829697 -51.305153 92.359253 0.0
36.718327 -35.255596 87.741867 0.0
-0.831226 76.532944 -43.229515 4.0
3.225004 96.454308 -132.49689 4.0
11.858593 9.755079 51.214737 0.0
-6.705331 60.882881 56.531384 3.0
10.9803 35.836498 19.175425 0.0
0.612637 84.302467 -74.908783 4.0
48.133034 -59.965549 103.0347 0.0
-57.353497 80.701271 -15.822049 1.0
-12.896966 55.895504 49.159962 3.0
37.270344 -30.331474 86.231232 0.0
2.36625 41.421436 13.461133 0.0
0.900068 60.349701 22.804829 3.0
-2.255 68.819351 -32.236401 4.0
56.67038 -73.517914 106.20453 0.0
-7.511357 60.728302 46.760883 3.0
2.3989 90.997101 -123.8896 2.0
-2.590408 84.492615 -71.974854 4.0
10.70976 3.129194 57.231541 0.0
-34.973312 79.375488 -26.769321 1.0
14.192434 41.584129 18.020271 0.0
-10.118275 59.030373 35.204723 3.0
46.90472 -61.401222 97.959541 0.0
-0.561297 59.550224 40.666504 3.0
1.330125 85.994972 -86.302826 4.0
48.499069 -71.291939 98.609711 0.0
62.200897 -82.466393 104.77496 0.0
36.343864 -38.620338 88.235535 0.0
45.002998 -55.897163 98.4422 0.0
26.336933 -1.874778 64.611656 0.0
-6.451962 62.533661 25.46331 3.0
18.803198 27.749308 36.603355 0.0
-0.75305 66.132233 -32.316498 0.0
23.329451 4.6244 58.145897 0.0
18.9547 9.6792 50.2342 0.0
-5.802383 61.412766 36.573158 3.0
-23.975811 79.618011 -36.878185 1.0
8.881275 10.303925 52.378151 0.0
8.82826 43.26936 8.204189 0.0
2.64715 59.028099 -19.680099 0.0
5.76514 20.0219 39.664043 0.0
9.739958 48.402725 5.035317 0.0
25.438471 3.371309 60.333355 0.0
0.299667 101.1709 -145.43669 4.0
4.641292 100.32822 -153.37769 4.0
-79.08918 74.653549 -13.959126 1.0
3.096598 68.787674 -37.967751 4.0
38.235363 -40.291061 90.427765 0.0
-4.818204 68.384735 -16.694012 3.0
2.676 60.479401 -23.361099 0.0
0.69705 102.0475 -148.54015 4.0
28.956396 -38.607166 87.737579 0.0
-81.657135 71.610878 -13.291022 1.0
-0.453045 70.898918 -21.351849 3.0
0.225233 65.266281 -19.050501 3.0
-1.407222 67.138451 -34.048923 4.0
39.149471 -31.658041 88.781021 0.0
29.956947 -28.080082 81.313408 0.0
-0.1129 47.207428 5.86545 0.0
4.356843 51.916176 -6.789963 0.0
-6.307842 60.150764 0.744742 3.0
-0.615504 81.351585 -75.777351 4.0
24.093569 7.864897 56.388172 0.0
27.137772 1.20137 63.100296 0.0
-3.1841 79.32135 -61.081902 4.0
1.010625 72.139771 -47.220776 4.0
-40.092499 76.688103 -19.494101 1.0
-0.73085 82.410645 -79.604355 4.0
3.828604 87.351852 -125.01086 2.0
1.425875 45.185524 7.915517 0.0
1.391 87.677353 -93.597572 4.0
-85.628197 70.873199 -13.572067 1.0
-36.870438 82.495407 -26.121449 1.0
-2.24155 85.971947 -66.308594 1.0
-16.195915 63.137169 91.295708 3.0
24.145426 -29.580473 84.412041 0.0
13.457214 5.088483 55.078629 0.0
25.109951 9.829 56.43045 0.0
32.238617 -24.643362 80.561211 0.0
48.111603 -61.393898 99.71463 0.0
43.221828 -57.144859 95.797371 0.0
1.8338 92.636703 -108.04594 4.0
26.465172 6.434534 58.970352 0.0
3.23295 43.181767 9.611576 0.0
34.317001 -32.589134 85.004028 0.0
12.39245 49.625351 10.2351 0.0
16.88471 5.48349 54.013741 0.0
52.183548 -71.310951 101.37966 0.0
17.647032 -1.582514 60.75502 0.0
3.98575 98.943604 -155.3389 4.0
-0.4725 79.344597 -69.911102 4.0
-5.31795 83.573799 -67.524048 1.0
5.73594 24.00577 34.76413 0.0
30.023199 -48.373501 92.674599 0.0
39.426147 -33.461884 90.157166 0.0
-0.162 83.555397 -85.165398 4.0
5.139269 82.377495 -134.65495 2.0
3.83855 92.517052 -121.9176 2.0
64.58625 -82.840561 106.87192 0.0
1.65895 66.640816 -36.186474 4.0
35.86145 -27.126301 84.069504 0.0
-5.0015 61.202347 39.273949 3.0
22.977781 -5.44693 63.940044 0.0
46.026188 -66.789429 97.657738 0.0
1.892163 84.774559 -145.75618 2.0
-1.2952 59.350132 -18.118265 0.0
42.552803 -45.457802 98.85685 0.0
-2.382258 84.609253 -82.029274 4.0
64.203537 -85.914581 105.10562 0.0
5.036097 83.157944 -130.83737 2.0
4.1623 86.134644 -136.10754 2.0
2.282763 49.822136 -1.546 0.0
2.309229 73.39473 -48.433075 4.0
38.725071 -49.50061 92.557404 0.0
2.4028 78.093102 -53.3335 4.0
-4.64525 69.451401 -20.791525 3.0
18.05905 16.658901 44.937248 0.0
-33.119373 82.405418 -28.915039 1.0
-12.205012 55.481037 40.054161 3.0
-10.880401 77.633965 -54.106449 1.0
21.947754 20.40752 48.743683 0.0
38.247284 -61.62167 95.636185 0.0
-0.3918 77.696503 -63.4846 4.0
17.812185 26.073507 37.264713 0.0
29.901472 -23.027584 78.29319 0.0
41.428165 -62.860748 95.712448 0.0
3.17572 86.265137 -139.82344 2.0
2.932144 100.89744 -145.43317 4.0
-2.9236 63.534901 -26.223499 0.0
0.5501 37.246281 21.524948 0.0
5.141173 57.665943 -16.954632 0.0
-0.13775 94.404953 -125.2843 4.0
-8.5601 60.424892 16.009972 3.0
-14.3596 64.123154 88.922813 3.0
2.203334 81.392151 -146.56212 2.0
37.65778 -31.960564 87.184532 0.0
19.056124 0.722242 58.375225 0.0
15.099886 9.382175 50.282036 0.0
39.429783 -40.391171 91.934937 0.0
2.1773 94.231903 -144.0715 2.0
43.385426 -48.649902 98.643494 0.0
38.331749 -35.185013 89.221146 0.0
2.994492 56.636436 -14.786259 0.0
8.90425 24.454205 33.738674 0.0
12.029358 -1.5908 60.927635 0.0
-59.674145 75.2146 -10.638659 1.0
-9.74338 60.130024 44.973446 3.0
28.7407 4.894313 61.401375 0.0
40.927147 -56.121902 94.396194 0.0
13.123275 37.965927 19.934029 0.0
10.36035 36.8685 17.204601 0.0
16.683668 1.286167 58.250431 0.0
-70.965263 77.236992 -13.66859 1.0
-75.447105 72.271774 -8.781037 1.0
21.786119 4.580306 56.562737 0.0
-1.979189 62.466805 20.918077 3.0
13.377945 35.475014 22.671814 0.0
26.398279 -18.120142 74.408936 0.0
-8.0051 53.964348 18.39925 3.0
47.386879 -64.964462 98.487549 0.0
22.219376 1.612292 58.912304 0.0
37.869801 -58.625233 94.595131 0.0
3.096684 29.902487 28.694885 0.0
-2.952733 79.681007 -55.192524 4.0
9.399338 23.049509 35.328636 0.0
-0.391958 85.941422 -93.263451 4.0
16.968199 -7.959131 66.636543 0.0
1.530471 96.427338 -140.43358 4.0
21.46706 -3.184173 61.774105 0.0
2.5768 53.371799 -7.8981 0.0
-0.975753 68.794258 -11.839359 3.0
63.799057 -81.084991 110.07269 0.0
-5.179092 66.750877 -4.978125 3.0
0.6708 75.778099 -46.794998 4.0
46.318974 -63.132599 97.442902 0.0
35.519695 -41.877525 89.127731 0.0
24.309299 15.0023 53.985401 0.0
31.614311 -18.306816 77.609314 0.0
1.358633 89.896637 -148.70102 2.0
-45.993248 86.996216 -20.841862 1.0
20.598499 27.380699 39.805698 0.0
-4.0397 59.455898 -2.5033 3.0
-0.714575 66.402756 -1.9767 3.0
0.74885 60.275143 -20.849396 0.0
-35.29435 85.523346 -25.260551 1.0
-9.2794 77.859955 -57.249748 1.0
35.826607 -36.892372 87.403931 0.0
-3.482966 70.083931 -34.029331 4.0
-54.385742 77.523163 -14.525864 1.0
2.39886 77.649803 -47.860828 4.0
-22.406673 77.957184 -35.827328 1.0
51.281948 -74.748993 99.962921 0.0
30.445007 -45.4235 91.009148 0.0
0.801525 83.007675 -152.96828 2.0
30.80847 -13.656949 75.748405 0.0
33.432953 -43.214272 89.467209 0.0
-19.193701 64.090401 102.3467 3.0
7.938835 20.860901 38.296661 0.0
-43.255951 76.534645 -18.798151 1.0
-20.353451 63.833649 106.6818 3.0
-9.704 53.5998 25.782249 3.0
3.660627 98.196243 -146.92429 4.0
19.440584 -0.872249 59.84243 0.0
-14.899057 57.148682 70.920372 3.0
1.058 69.868202 -24.9722 3.0
39.858055 -42.223892 92.970505 0.0
-12.0597 58.034901 46.260498 3.0
-7.0032 63.714691 3.78975 3.0
-2.148475 83.062973 -66.715675 4.0
1.659183 63.863953 -0.472183 3.0
-8.596846 60.720924 38.357777 3.0
-7.038475 83.33445 -64.285675 1.0
-0.773803 75.858643 -40.619759 4.0
5.243383 43.346302 7.944592 0.0
0.2196 62.973999 -12.2171 3.0
-3.1245 84.10775 -75.678696 4.0
3.27795 64.90448 -33.371799 0.0
2.72319 87.634399 -143.01128 2.0
0.422128 98.822731 -147.49156 4.0
-30.173401 83.305389 -31.317711 1.0
4.025237 95.611359 -123.83183 4.0
-51.248188 84.808167 -19.116396 1.0
20.401939 10.044067 51.591236 0.0
4.380211 81.396629 -138.37216 2.0
6.352045 28.401804 29.403973 0.0
6.408531 90.758865 -131.08716 2.0
14.899399 -8.243033 67.016533 0.0
39.999748 -36.761608 91.81839 0.0
49.993565 -63.714211 102.17105 0.0
-0.122417 72.104309 -27.158354 3.0
4.080698 83.913773 -137.07864 2.0
-8.951319 60.370369 29.583187 3.0
-13.174175 60.476624 71.251724 3.0
-0.847212 71.179039 -43.812927 4.0
44.604088 -63.467014 96.77507 0.0
-4.400777 65.940369 4.012321 3.0
-0.4475 90.804497 -111.8514 4.0
9.777599 31.533073 23.625601 0.0
0.11385 74.181099 -53.431976 4.0
-2.1381 85.626701 -74.332947 4.0
-21.167282 78.92128 -39.020195 1.0
-1.68395 77.104034 -45.367195 4.0
21.201006 -7.551491 65.977089 0.0
-10.990435 61.251377 68.575836 3.0
-2.3465 92.865097 -104.9268 4.0
2.902472 76.1688 -44.967209 4.0
-81.385452 74.773109 -13.864572 1.0
1.961783 60.442085 17.000778 3.0
-3.15255 81.836105 -70.169746 4.0
0.92515 95.815994 -136.1644 4.0
-83.887802 69.681549 -9.73885 1.0
7.1024 24.924232 33.667934 0.0
-5.017943 64.366905 12.473512 3.0
26.568018 -40.625053 89.733429 0.0
0.382788 62.720772 -25.68745 0.0
-56.375401 73.104179 -11.289833 1.0
32.256531 -37.595596 86.911247 0.0
26.446688 -37.354462 88.021538 0.0
-17.142504 80.60498 -45.995163 1.0
20.537701 24.66934 42.803741 0.0
5.84375 55.796097 -12.032526 0.0
-32.761326 76.13372 -26.168352 1.0
5.742532 64.917618 -23.307997 0.0
0.87265 43.660061 11.605335 0.0
0.868291 89.38028 -94.1297 4.0
-17.250219 60.010399 92.548035 3.0
2.0055 75.707634 -54.090832 4.0
1.951375 62.041336 8.688587 3.0
40.914787 -59.617485 95.212631 0.0
-6.09975 60.764099 52.7328 3.0
29.336449 -46.611374 92.095924 0.0
6.69015 51.693573 -5.32985 0.0
9.156626 40.375053 10.947948 0.0
3.610342 81.697479 -140.30142 2.0
-28.091499 74.8778 -29.891001 1.0
12.138226 24.19965 32.731224 0.0
1.29485 81.145599 -62.094151 4.0
41.822136 -51.00518 94.693039 0.0
26.45673 -24.1101 78.781067 0.0
-0.250125 88.659225 -88.030182 4.0
-6.9392 80.932297 -61.747398 1.0
38.82346 -36.997322 90.381119 0.0
59.347328 -76.425339 106.8721 0.0
21.062599 -21.89875 81.097046 0.0
